# .PCD v0.7 - Point Cloud Data file format
VERSION 0.7
FIELDS x y z
SIZE 4 4 4
TYPE F F F
COUNT 1 1 1
WIDTH 1608
HEIGHT 1
VIEWPOINT 0 0 0 1 0 0 0
POINTS 1608
DATA ascii
1.8823177 2.4821832 0.23701505
2.2494962 3.8733633 0.64187157
3.0549242 1.5519733 0.26194483
1.7746682 3.4244852 0.66724205
1.9403486 3.6648481 1.2046577
3.5030727 1.2630512 0.62910557
3.9126992 0.3717427 0
1.9400125 4.0260878 -0.0094692968
4.5 2.3822198 0.45182288
3.9581552 1.6443604 0.052746005
3.2804737 4.086751 0.31087697
2.3840244 1.9199101 0.052746002
3.447046 4.8052759 -0.11906203
2.0333955 2.5642991 0.52915174
0.95012975 2.683239 0.2076579
1.8384852 1.1509612 -0.36181232
0.9045155 4.1641941 0.81664646
-0.10497496 4.4503102 0
1.0500269 3.3328884 0.57068503
3.3663437 3.1943634 0.68969035
2.9990392 1.3798252 0.79153329
2.3367925 2.8400276 0.82492983
2.7239962 2.2956951 0.450405
3.8829451 5.4000001 0.71718079
3.2010591 1.7249715 0.076142862
2.4963572 3.8943176 -0.05423221
2.5094242 1.6086595 -0.056855798
4.4296379 5.4000001 0.62639666
0.97723269 4.2112851 0.37246203
0.25171074 3.2174847 0
3.3110602 2.9570541 0.64824581
2.8105903 2.2579691 -0.1805191
1.1783731 3.6220546 -0.325905
-0.43009189 0.60422921 0
3.2374234 -1.4 0.16628173
3.5652182 4.149281 0.075285599
2.8119726 2.700758 0.94604468
2.1233578 1.7146814 0.3839508
1.1618152 3.247263 -0.090420887
2.0478587 2.6256194 0.08353515
1.9055641 0.73028046 -0.12809774
3.0930796 2.8801882 -0.14917411
0.64234149 2.7373857 -0.0076505467
2.740443 2.6028838 0.75355226
2.2166862 3.1399577 0.91149241
2.2370772 5.4000001 0.64736551
2.3731256 0.13675225 0
0.37695 4.2164774 0.733666
3.3437002 1.4379507 0.75661844
2.7441754 0.69538867 0
0.53088689 -0.37911719 0
3.5964172 2.4617193 -0.22365187
-0.5 -1.2729236 0.51823431
2.7613049 0.82903332 -0.32689619
2.1398554 1.7461263 -0.031975619
2.0778799 1.513818 -0.21327446
1.7721494 1.5188539 0.41591686
1.479157 -1.4 0.34596625
2.4508555 4.7780428 0.43976429
2.5514193 5.3968654 -0.14780781
-0.31671959 1.5526912 0
1.3441288 3.5397034 -0.016183827
1.6223546 3.2884452 -0.091450095
1.5558739 4.2402859 -0.36632234
1.1460867 3.8539805 0.015899898
2.0681207 4.4812202 -0.056895059
3.1773841 5.503705 -0.35122561
1.600697 5.14608 -0.14132115
3.2137744 4.0764256 -0.076472923
1.4210165 2.5067587 0.51349831
3.4173992 0.7776885 0.26821139
3.7518351 0.82572991 -0.38626021
-0.5 1.8233912 0.86413068
3.3446679 1.0325595 0.019016296
3.0189672 4.9550328 0.15914036
2.749402 2.7966545 -0.17422387
0.064712912 1.5165429 0
2.0457492 3.1168664 -0.059017517
1.6889114 1.159188 -0.21244268
2.0585775 1.6096636 0.53777874
2.3756535 4.4799685 0.51381338
0.062470853 2.2793534 0
2.4397836 3.0060196 -0.33856443
0.98140472 4.2363276 -0.14240272
-0.5 2.1201284 0.24780965
1.8699005 2.5039189 -0.036897086
3.6662021 3.3035421 -0.13525894
2.0462053 2.8020954 -0.24639554
4.5 -0.91517884 0.030305207
1.8803172 4.5014548 0.055741727
1.1648512 1.7767868 -0.16686678
1.4436697 1.6079154 -0.32431158
2.1188374 3.9436538 -0.28355643
2.2782855 4.1073203 -0.2722072
-0.5 0.71562898 0.66907978
3.4578826 1.6385058 0.21982312
1.916559 1.6562195 0.94467986
2.4936702 5.4000001 0.79637146
3.5027313 5.4000001 0.15088728
1.5133973 0.87312675 0
3.9170055 0.75617671 0
1.6708131 0.49108759 0.30776891
2.4207206 5.3976755 0.2769798
0.4636817 -1.4000001 0.27633205
3.6570108 2.6337118 -0.11847818
1.6395419 3.9063582 -0.011542859
1.2201941 4.0576105 0
3.7761657 -0.20462579 0
2.079699 3.6911612 0.047430009
4.0747476 3.2689528 0.29428172
1.6172901 3.0233932 -0.32874537
1.0425451 2.9002137 -0.19115928
2.285563 4.6202831 0.48939392
4.0128365 4.2046995 0
3.371532 3.9150593 0.071101069
1.3785027 1.352751 0.61758035
-0.5 1.9127185 0.023435771
0.67175442 1.7807828 -0.4548277
1.679412 0.85738999 0.6549232
0.30108166 4.4967332 -0.13950175
2.7185564 3.9729056 0.24033175
3.4083509 1.8778461 -0.08041963
3.1415925 1.5489857 -0.11993816
0.99492669 2.6110618 0.09003821
2.6555223 2.0756836 -0.13322783
1.283078 3.3541894 -0.37841836
1.1975785 2.8311725 0
0.91344577 3.425539 0.55618227
1.6632632 4.0552177 0.60967928
1.6738086 4.081512 -0.12967664
1.5714351 3.9398179 0.46914592
1.1753895 3.7183084 0.059496474
0.50764567 4.8845005 0.11764564
2.5046158 0.74698597 0.052746002
0.5121156 -0.070138335 0
2.9936213 2.3083162 0.90580684
3.2417798 4.0632973 0.086289808
1.5156873 3.0284483 -0.11501565
2.4391813 4.1348124 0.048171543
2.271193 3.3097253 -0.27915919
1.5510014 2.1212866 0
2.1824164 4.5656819 -0.23710224
2.3429556 4.0324278 0.82333016
0.45664838 4.8845973 0
2.8498127 1.6578999 0.028559137
2.6951344 4.1572032 0.49477321
1.8468881 4.0246258 -0.42189544
2.8586717 4.1255388 -0.097531989
1.5390074 3.1917794 0.061915047
1.8638673 4.15207 0.55946475
0.29028803 4.3285966 0.38384059
3.2913949 0.97729629 0
0.89327198 4.1406989 -0.11817189
1.4761668 -1.4 0.85837156
2.7711794 2.6167943 1.1600127
1.3263597 2.8695247 -0.046684623
0.87391341 4.0093503 0.77231395
2.5897245 3.6613402 0.75194442
1.600945 -0.73964119 0
2.7301576 2.6557972 0.65995258
3.1279106 3.7366827 0.77282548
2.3960576 4.4287224 1.0748473
1.8937249 2.6137986 -0.23484717
4.5 2.112793 0.93440235
1.8094544 1.6878774 -0.11120461
4.2265677 5.4000006 0.43046391
1.07298 4.2494135 -0.03253543
2.2276688 5.4000006 0.86721301
1.6634717 0.61444175 -0.021007299
-0.5 4.1245651 0.70065528
2.4412706 -1.4 0.38344902
1.8898418 1.2529233 0
1.6766828 2.4085865 -0.089709356
1.0897734 4.2911062 0.39387554
1.1654092 2.868196 0.16918705
1.9789743 -0.37704307 0
2.6789548 0.90810412 0.052745998
-0.19030795 4.6026759 0
1.3345091 0.82141387 -0.2755653
3.5978746 1.3431641 0
3.0120735 3.2302465 0.047708862
1.5393742 3.8927493 -0.093096174
1.1076206 4.6500878 0
2.8347716 4.5627093 0
3.1028526 3.1561661 0.052746002
1.7420745 2.4091187 0.4938837
2.7529323 0.14727959 0
1.0087407 2.3177991 -0.044302598
0.083905369 1.6414554 0
2.3346462 -1.4000001 0.23278525
1.1322858 2.1358058 -0.0067818314
1.3711789 3.4520264 0.017952673
1.0660343 2.6208444 0.1112174
4.2452607 3.0561795 0
1.1948972 3.4188538 -0.28577131
2.8971455 4.9106159 0.43171197
0.9532932 2.8499479 -0.204128
2.1667252 5.3161383 0.18505155
2.5110593 0.84715188 0.72697353
4.1714978 4.3484077 -0.48346019
3.574903 5.4000001 0.61001235
0.6895715 0.69441181 0
1.6072915 3.2772708 -0.26923746
2.2070007 2.4726357 -0.33900303
2.1755457 3.4909601 -0.34829128
2.3565338 2.8190358 -0.019639052
2.9413638 2.6488206 -0.16308409
0.67678612 3.6644037 0.57323587
0.010475159 5.4000001 0.17650096
1.3391943 1.892126 -0.30420935
3.1570778 -1.4 0.86818331
1.9680928 3.0439031 0.68061799
-0.023749828 5.4000001 0.61311692
4.5 1.7973338 0.17926943
1.988606 0.8491779 0.52242011
4.5 2.3582129 0.02036345
3.6048424 3.9892364 0.055704176
2.1859586 -1.3846586 0
1.2115736 2.4012895 -0.088302024
4.5 3.000416 0.10432738
2.8918831 4.6166048 0.058209524
2.9936464 4.2367563 -0.10626348
1.9281622 0.84062898 0.63569582
2.7840745 1.6264136 0.31075856
2.4676027 2.1671855 -0.48343888
4.5 -0.55451345 0.15445673
1.6780548 0.68801403 -0.46259397
3.0585194 3.317481 -0.0065590367
3.0720701 2.1021805 0.11499658
2.6521466 4.8335781 -0.1262043
-0.12683129 2.7383308 0
1.343232 2.2163143 0.51252407
4.3830872 1.8667095 0
-0.5 0.62558329 0.15363479
3.550957 1.4109995 0.0056067929
3.7825069 1.7324358 0.37657163
2.7078085 3.0678668 0.68060833
3.3534007 4.3887682 -0.0093699172
-0.42530715 3.7642441 0
2.0548429 1.7220626 -0.1038267
2.1796489 1.964483 -0.029973952
-0.031651229 -0.55189824 0
1.1659852 2.8712244 0.22382787
1.5529709 2.340549 -0.2427543
1.9846534 2.5203338 0.011767045
3.0623841 1.6270295 0.14095432
4.0666132 4.7876234 -0.094249539
2.672668 4.2079039 -0.047496594
1.9473246 4.6673012 0.12326199
0.57886034 2.7405171 0.03587766
1.8287656 2.5490408 0.068831906
3.5367668 1.6861577 -0.19379771
2.612648 1.6135646 0.55296928
4.5 -0.95558333 0.65928227
0.83942056 4.0966768 0.91462302
2.5795565 2.640219 1.1208946
0.58512104 4.3023582 0.7120474
3.5345068 1.5048115 -0.013374604
2.6624794 4.1782799 0.042225696
3.4615495 1.8789432 -0.13473414
4.0521302 4.0859246 0
1.5812724 3.8265824 1.2556453
1.7857082 1.5133834 0.46506971
0.68612266 4.1238093 -0.40526277
1.8923748 2.7386966 1.0312792
1.3842851 0.80726796 -0.092971876
2.7346618 1.8411531 -0.32094172
2.4690588 2.8831792 -0.10833919
-0.5 5.2969575 0.57897264
1.8023272 1.7035064 0.48560315
4.5 4.3271108 0.048038483
2.9855769 3.2227731 0.39740556
1.9870982 1.8417656 0.38785392
2.7522779 1.8437681 -0.050500743
1.6950877 4.1604767 -0.27911347
0.93502975 2.3003006 0.17551777
3.3888447 1.4463991 0.053537875
1.9427531 2.1326997 0.11207046
2.8794034 1.900671 -0.14835191
1.2542979 3.0615578 0.56665301
2.3807795 1.2872602 0.93968624
3.0224032 4.9808121 0.43143636
0.60753053 5.4000001 0.085018538
4.0545492 3.1787667 0.34249899
0.38150492 2.4333661 0
4.5 4.7244873 0.64821404
2.220015 2.6509891 0.82952666
2.9483285 3.3352985 0.030372947
-0.5 2.6118526 0.4435907
1.1600615 4.4057751 0.048359655
3.0294728 4.8791203 0.17484485
2.8697355 1.431587 -0.07109908
2.3698142 1.6005342 0.037776481
3.3000038 1.241997 0.68043888
1.7783502 1.4830326 0.024013665
4.5 3.4277442 0.13291931
4.0821071 1.7214215 -0.20129372
2.6362166 1.431587 -0.23522097
1.3948166 3.6983447 0.48248601
1.1376524 4.2344785 -0.16342798
1.0915458 2.6240752 0.0077325925
3.4972401 2.519521 -0.28527609
2.9652114 2.1460047 0.60120916
3.9925373 0.7506358 0
2.5668821 1.4959507 0.66617143
2.5810437 1.5165373 0.67906928
3.5174844 0.82970285 -0.062602803
1.9136171 0.54493797 0.53854513
1.3414484 5.4000001 0.40185714
2.8454342 3.9496098 0.64259428
0.51566863 3.0284991 0.11961515
1.3915615 3.6099417 -0.49851868
4.1219292 4.9808526 0
-0.45626602 5.4000001 0.049196906
0.94184369 3.7039144 0.062735662
1.600996 5.1546912 -0.17502211
2.4703283 1.5572231 -0.31002933
3.219285 4.4337096 0.45720613
1.0250468 4.4061046 0.045938
1.6869695 0.51927412 0.052746002
3.5068257 2.8343325 -0.24768837
1.6379765 0.59288883 0.052746002
1.0549231 4.5163226 -0.27628809
2.0778799 1.2069952 -0.069249079
1.3975703 3.3938844 0.084807985
2.3800201 3.056236 -0.30534297
1.3259673 3.8637059 -0.31253928
1.6893351 1.0032369 0
-0.43725422 4.4155221 0
1.4938022 3.315434 -0.40669176
3.3301616 1.673275 0.07864856
1.6483665 1.5127147 0.25896406
2.429595 1.339767 0.54819709
3.2526493 4.462709 0.46014977
2.2959259 5.3386779 -0.0051489342
3.8246412 2.2239201 -0.29956898
4.5 4.010396 0.96829849
0.96097887 2.8642848 -0.2054702
0.78837454 4.0914259 0.045937996
2.074482 4.6525755 -0.18945462
2.404681 4.4602261 0.049053103
3.5771637 1.6391947 -0.17134154
1.0071359 2.5492859 -0.064157665
3.4747987 3.2466347 -0.37411231
2.8077445 1.5409582 -0.15725811
4.5 0.23565586 0.10885882
3.9356751 2.2937934 0.049237464
3.8831909 3.5288935 -0.16942008
1.4135003 1.9427979 0.59044194
1.5925698 1.0220183 -0.31090268
2.3641949 1.5344326 0.3890492
3.0326529 2.3613181 0.85202301
0.92896205 3.4087863 0.019355722
1.6922797 4.613884 0.10173806
-0.5 5.3182597 0.25666618
4.4760613 5.4000001 0.041554868
1.8310816 2.5144789 -0.22536176
0.52810884 1.0192686 0
0.45404825 4.8571682 0.17058548
3.1361597 4.0418563 -0.14901343
2.3813984 5.365366 0.023565978
4.5 0.34088761 0.64327151
4.5 2.5541244 0.25250202
1.0593652 1.275311 -0.13381152
2.7305903 4.0784559 0.31408226
0.33713043 4.3712716 0.40073287
0.75075227 4.2400751 0.84158868
1.542448 2.4757037 -0.090102717
0.011417627 1.7640088 0
2.5227568 4.6065893 -0.1553608
2.0106387 4.1024098 0.53819829
3.6750164 -1.4 0.45799759
1.7393403 2.2082903 0.86980158
1.2385194 2.3638434 0.038941368
2.5965455 4.1179366 0.99672687
4.442656 4.4645219 0
2.5865259 3.433145 0.060120173
3.3799634 4.6634698 0
0.70406789 -0.83300894 0
1.8654442 4.141201 0.52632546
3.9308157 4.2905388 0
1.8977861 1.6831411 -0.15898612
2.2028992 -1.4 0.83505738
0.28950697 2.2624598 0
1.6566532 2.2566938 0.11049327
-0.5 2.3105941 0.85043061
0.61908263 3.5086794 0.72208261
2.3109882 1.982836 0.37103564
0.75590825 4.3133631 0.64486909
1.6729183 2.8761585 -0.10781118
2.5405102 4.8947153 0.29957038
2.795445 1.459331 0.18809713
3.9153159 3.061137 0
3.1269515 1.8929228 0.37772536
4.0584021 -0.17327315 0
2.835171 1.6384265 0.95250738
3.484329 4.0697856 -0.20056379
2.300684 1.9816056 0.013627835
2.9321342 4.4048057 0.40531421
0.99080253 2.4609866 -0.35091886
2.8344369 0.84882259 0.55529964
2.3247313 4.8104901 0.59780884
0.78607923 3.9878252 0.93215632
0.39094764 4.0541854 -0.027380437
1.9829686 1.8152025 0.35171843
2.5084496 2.6436365 0.90440738
2.7936478 3.7309618 -0.34315589
1.7194599 1.5611124 -0.27262118
2.1428924 0.51584202 -0.39172646
3.8190217 1.894794 0.27773127
1.9480565 2.5570209 0.0075717159
0.88790154 5.4000006 0.49713662
1.1004133 4.1289916 0.50995368
0.27127343 4.4242482 -0.14734025
1.8470809 2.8816528 -0.10981494
1.1794366 3.0546122 0.030253939
3.4519424 4.815197 0
3.6460369 3.7261834 0.031139174
2.2152669 3.2631018 -0.22563815
3.2423716 4.0198946 0.16763636
1.9134609 4.1317286 0.57581896
2.7470739 4.7277317 -0.11739554
1.1365826 3.4380331 0.98346722
1.7436121 3.0285506 -0.1402889
3.6913111 3.0173769 0
3.7184196 2.0647869 0.052745998
1.0585299 1.2378396 0.039078724
1.9794639 2.0523973 0.49957377
1.8457201 2.8959343 -0.098254874
2.4315319 2.5968947 0.052359287
1.7747722 4.1227083 0.89708793
2.9771852 3.8777227 0.81367528
3.3011818 -1.4 0.2285565
2.6160762 1.1216823 -0.06778983
1.0521826 3.426136 0.38175717
0.50360042 2.9172559 0.28131342
3.3068423 0.74111432 0.15081495
3.7784812 1.7492378 0.56615055
0.91042709 2.45872 0
3.2247462 0.80583906 -0.0062656328
2.1419601 3.3720613 -0.070748739
2.7537212 3.1955719 0.53939927
2.8986754 4.9808526 -0.099283412
2.7794559 4.6010933 -0.1503247
3.037245 2.6277428 -0.24330017
1.5060208 1.0526999 -0.11936581
2.9228156 3.3060081 0.10439866
1.0622261 3.7505112 -0.34667581
3.1062052 3.4508684 0.051894374
2.2449188 1.2010982 0.61376995
3.176332 0.51009119 -0.024780968
3.5484266 2.6211805 0.11704845
0.61882472 4.9130182 0.21910003
4.5 1.1024181 0.095091999
1.7316992 3.6965718 -0.28589803
1.1483473 5.3999996 0.10986415
1.7563925 3.241996 0.5908727
1.202264 3.664413 0.48993742
1.7999365 3.8728654 0.061471675
2.6279294 1.4770446 -0.34135479
1.8201604 2.8494759 -0.26344901
1.8001524 2.976542 1.1209812
3.2668369 5.3231163 -0.19933043
1.8299445 4.426106 0
3.2728431 1.0468099 -0.39086941
3.4554992 1.644884 0.19697265
-0.5 4.1651659 0.75206131
2.8955836 3.0435023 -0.27471161
0.58758241 3.83742 0
4.3708243 0.95239681 0
2.9383755 0.87260252 -0.050201707
3.1981628 3.3491163 0.19472992
2.1624737 2.1074674 -0.40226462
4.5 0.67289418 0.64058053
3.5435228 2.1739831 -0.30678678
1.5958709 3.1736803 0
-0.5 -1.1743674 0.28757459
3.5363808 3.2283473 0.1317879
3.1364906 3.3712387 0.20697093
3.6656713 2.3357773 -0.21430185
1.7457433 2.3005211 0.71329445
3.5800529 2.9380302 -0.30411789
1.2231932 0.99676895 0.06067704
1.6028508 4.1465287 1.0794451
2.2991188 5.0617332 -0.27035666
1.2250769 3.498106 -0.13826653
3.038806 2.8182821 -0.00055470318
2.2819405 4.5232797 0.51075232
0.71337754 3.8487716 0.080572814
1.9781463 1.8095399 0.3269496
2.8536899 2.7550514 0.82313228
2.4755144 4.093081 -0.077664405
-0.5 4.1727924 0.1517303
0.94078112 1.9958634 0.022126757
2.647367 2.2252266 -0.4200547
2.7667689 4.5865006 -0.11779673
0.60650426 3.9844735 -0.033164635
2.6912019 5.4000001 0.051631723
1.6510372 2.1192782 -0.042854343
3.7005045 1.5969826 -0.3624377
2.8980982 -0.060951322 0
1.7816021 1.1119739 0.034387
1.6947917 1.4884684 0.034387
1.8422179 4.5991583 -0.14194217
3.7184474 4.1960669 0.046156738
2.5053821 2.1924109 0.50949991
2.0774989 2.3126049 1.1016755
1.4927027 2.6912925 0.16793004
3.5449584 1.8263947 0.018862251
3.0576882 4.6063261 0.44957
3.983103 4.2137728 0.031787999
1.4960299 3.2499254 0.646909
3.1334157 1.2369167 0
4.5 -1.3352262 0.77776939
1.0857209 1.5175527 0.052745998
2.8645263 1.2539852 0.052746002
0.84159714 2.2910852 -0.24245521
1.6848423 3.8375218 -0.25287226
2.8517449 2.6061435 0.81789064
3.524452 4.4066043 -0.040067673
1.0822337 3.9877617 0.059611894
1.911083 4.4167929 0.35930213
1.1538582 2.206507 -0.10999376
1.3004905 4.2238488 -0.033934645
4.5 0.40547186 0.49276721
2.9253311 3.5174184 0.22672889
2.505903 3.8143268 -0.49998856
2.4533386 1.052318 0
1.6641945 1.9296137 0.090331867
4.277916 -1.4 0.72960383
4.2698212 1.155068 0
1.0347199 1.9777726 0.018864909
-0.5 1.0925174 0.87461591
4.5 0.77599424 0.79194826
-0.5 -0.010333717 0.66339082
0.91545689 1.4639624 0.034906454
3.1966431 3.3699071 -0.1442568
1.8042277 3.6379867 -0.36869437
4.5 5.0186601 0.4527092
2.3315206 2.1351826 0.36504686
1.5969889 1.3138981 -0.35908794
0.97325271 4.8474197 0.31989214
0.24226987 4.2410164 0.59577966
3.7065976 2.018733 -0.0070334859
1.7400893 3.5683346 1.279254
3.7343001 3.431078 0.22645029
4.5 3.0188289 0.076066256
1.8729968 1.098628 0.60072047
4.5 -0.78210062 0.47277641
1.2147106 3.7755523 -0.042628292
2.9488771 1.8113384 0.60613811
4.5 -1.0891094 0.21552378
1.7328227 3.2439103 1.172718
4.5 1.1165172 0.89029294
0.083327413 0.48121786 0
3.3150101 5.108408 -0.18979293
2.9062734 4.5528288 0.024852097
2.8763552 4.6166048 0.17414978
3.1794116 4.5493317 0.023415253
0.79260015 4.8498993 0.41033101
3.6392424 -0.58343214 0
1.5812178 4.5716429 -0.1518362
0.42507643 3.1325777 0.21513265
2.3373914 1.5916628 -0.19402862
-0.5 4.9964948 0.54957688
3.4189372 1.1520103 -0.49294412
3.9379897 3.9348557 0.016493144
1.8076962 4.9930487 -0.22300407
4.3096581 4.3373098 -0.3113119
-0.5 3.1661835 0.77691627
1.95128 1.0917567 -0.37931758
1.9665165 2.442143 0.71139818
3.12468 2.2701683 -0.080324739
3.4171906 2.5010986 -0.10625205
3.0489404 5.0590096 0
0.76629281 2.8996615 -0.20406656
2.4943018 4.326005 1.0641556
3.2551303 4.3590689 -0.35790154
2.6191094 1.631231 0.97166061
0.55463839 4.5370765 -0.16510135
1.3738788 2.4618661 -0.49484038
1.2365763 2.0434122 0.46773756
1.3848735 3.2460034 0.65653825
1.0107539 3.5471187 -0.033157855
2.9858551 4.5221181 0.45205352
-0.5 4.980289 0.83633232
1.9638735 1.6609094 0.59987211
1.5532281 4.9828377 -0.39152351
-0.5 2.5989819 0.47554699
-0.21672627 5.4000006 0.12462392
1.9315989 1.6017129 -0.24124831
3.2312036 1.3720977 -0.29576895
3.7786217 4.1323218 -0.022971723
1.0525316 1.7261631 0
1.623879 0.40646705 0.052746002
2.2007148 3.6651201 0.66908848
1.9498705 1.7368362 0.60929459
3.135148 1.1903307 0.64641976
3.4550109 3.0038393 -0.43915454
2.0418339 1.6808803 -0.13586839
4.4164805 -1.4 0.24405812
3.4212685 0.91343713 -0.13736069
2.5628707 3.7259164 0.5738405
1.8138077 2.9966111 0
1.0183452 2.5489676 0.097497843
-0.5 4.9157567 0.40005898
3.3861604 3.8371544 -0.16902301
1.9336729 4.6261711 0.10666504
-0.5 4.3231421 0.76060641
0.4648751 4.34589 0.35255191
1.9792085 1.1123482 0.50054228
1.1733632 5.4000001 0.99933136
2.2191114 4.7111802 -0.19569765
3.5346096 3.1257653 0.052745998
0.76420176 2.8636348 0.51284015
4.5 4.6837296 0.25398931
1.560511 3.4815154 -0.014329819
3.6937749 2.9156785 0.19571015
2.1680675 2.809196 1.0385692
1.831697 0.44726828 -0.39982551
3.3011734 0.99416649 0.58921957
2.8996441 4.4406004 0.30198172
3.3875597 1.7622159 0.087493591
2.074929 4.0958328 -0.14620389
3.1719284 4.2714014 0.051101185
1.5648599 4.3641577 0.19354196
3.3096132 -0.99192643 0
1.3187264 3.3045092 0.39414755
1.9552102 0.59380573 0.15622018
2.4005547 5.0931921 0.20739624
3.5969121 2.6349761 0.15183344
3.2012942 5.4561267 0.36650231
1.1063675 -1.4 0.69938612
1.696035 2.1492102 0.073282368
2.121716 0.32933882 0.0071320329
3.297399 3.9077959 0.35646236
2.013835 1.1342288 -0.43424076
2.854589 0.7223441 -0.050582685
3.5654197 3.4585028 -0.12877296
-0.5 4.8119535 0.50359011
1.2329633 3.7517347 -0.18729827
2.5763547 2.6141868 0.051239196
2.0738323 2.5283368 0.77826047
2.4938519 2.104423 -0.058954522
1.9225442 2.6992822 -0.010206487
2.0099218 5.0094986 -0.062975965
2.0524683 4.2086101 0.76905739
2.0756667 3.2302718 0.66297776
2.5535243 4.4872904 0.51764315
2.0642157 1.4415656 0.15262081
1.6830257 2.1565514 -0.23268297
0.612939 4.2480903 0.33813834
3.7990329 4.5452929 -0.40406802
1.7203501 0.57004809 0.10058019
1.8584125 3.2011642 0.64750373
2.8892331 2.5044827 0.037215173
1.636323 4.0245075 0.053481042
-0.5 5.2336683 0.74524397
4.0779076 -0.21683535 0
1.491205 1.4625814 -0.015706994
2.6068134 4.9189014 -0.23021314
2.0710676 3.6442823 0.047327071
4.5 3.823204 0.7852354
2.4353333 1.3559172 0.78800863
2.2721462 1.2972363 0.045424636
1.8599 3.155556 1.0323191
-0.48063213 0.86561477 0
1.7761878 4.2157393 1.0007709
1.9663225 2.4139471 0.26629677
2.8755193 4.4976768 0.89045465
1.6198936 0.9678759 -0.23763308
0.55939627 -0.88552397 0
2.3228812 4.0124326 0.75266409
1.6246504 0.47084492 0.052746002
0.34302947 4.0745258 -0.022822879
1.6054204 3.0940166 -0.33511543
1.7740002 2.9329889 -0.39131701
0.62147868 2.6922371 0
-0.43680483 0.21336806 0
1.8967981 4.1556191 -0.32393569
0.99624956 3.0241561 -0.14091256
1.9964545 3.1650443 0.93177426
0.89668804 3.7712743 0
1.7487458 0.52700567 0
1.0549231 4.1811957 0.021541739
1.6563412 1.9990544 0
1.9226601 1.5186474 0.034387
4.5 4.0984087 0.1077885
3.4493704 0.63745672 0.060607638
3.6164625 2.2388163 0.045828894
1.4680433 4.3946819 -0.16423559
0.95775008 3.7881417 1.0639964
3.7001023 2.9474933 0.14621337
3.612859 3.4986503 0
2.9645336 1.9726336 -0.03364598
1.7632514 1.774936 0.59433544
1.9440956 0.57435197 0.19485702
2.8365104 3.4932008 -0.20778629
2.1138902 3.0432248 -0.21579145
1.0912473 1.7507571 0
3.4730041 2.607131 0
1.7380788 1.1014583 0.050349277
0.3796742 4.2109385 -0.29100269
1.4775487 2.247066 -0.2022641
2.195806 5.0893531 0
0.35635063 4.636632 0.41033101
0.56037784 4.8872833 0.099723056
3.7001021 2.7355936 -0.1060063
2.0074828 1.8323696 0.38138881
2.533612 1.2577916 0
3.3235712 3.4769959 -0.031105138
1.0437105 0.35398972 0
0.022581585 4.5447993 0
2.9346621 3.4257164 0.32065973
0.92527628 3.9931536 0.49338448
3.2459567 3.8368955 -0.18498816
1.9647592 1.9971488 0
0.17204423 5.4000001 0.85705286
2.4065549 3.3408499 0.62239337
2.3210964 3.0627551 -0.040336065
0.89651453 4.7107868 0.14993681
-0.35232431 2.3095176 0
3.0865593 5.4000001 0.50939596
1.4792881 4.1394267 0.88503855
1.4054883 3.9865675 -0.074277513
1.1904562 4.026639 0.75037402
1.2334771 4.5838542 -0.21624675
2.6255937 4.8441324 0.33637357
2.7747226 4.0869975 -0.09565188
2.0093341 2.4615116 -0.51739943
3.3730838 4.5415382 -0.2986626
3.9304879 4.6112738 0.24214625
3.4796996 2.367671 -0.31802118
2.8667183 2.3764942 0
1.6912718 4.0611238 -0.13730951
2.6716394 1.8078933 0
3.3806281 1.4840271 -0.16222
0.53188539 3.1535585 0
4.3191485 4.3038497 -0.38305119
3.7928882 1.6264983 0.052746002
3.9814112 4.7490854 0
1.162889 4.5636139 -0.073709331
4.5 4.2416139 0.11110961
1.3425931 1.8199849 0.052746002
2.4603612 3.7179 -0.15599288
3.3007796 3.3145576 -0.10221969
2.8464136 4.0100803 0
2.634918 4.2010088 0.57506621
1.8751872 0.8653909 -0.052918781
1.3681998 0.082320035 0
1.451051 3.7011023 -0.31883609
4.5 1.5521934 0.40700758
1.3816569 2.7958026 -0.10963124
2.0382354 4.5180335 0.026351122
2.8032503 2.9490302 0.54799736
2.5219104 1.5304146 -0.16023745
1.9706498 0.6425907 0.00012994221
1.6898879 3.6241982 -0.29737154
3.2177696 1.1401377 -0.40756449
4.5 3.9410849 0.74484932
1.2168394 1.6653228 -0.060134772
4.5 0.74936986 0.2158491
3.7872436 1.7336835 0.39392534
0.50238156 3.0249469 0
3.1586139 2.0870914 0.59241408
3.9059088 3.2858803 0
3.2870977 3.7558067 -0.066616133
1.9286479 1.6030746 0.86133963
2.6478386 1.6157173 0.7227217
2.2497363 1.6187847 -0.12945145
4.5 4.8698344 0.36312214
-0.1474441 5.4000001 0.92975432
3.7001021 2.7423406 0.18936406
2.3130486 4.9773092 0
1.8375204 4.1727009 0.91685987
1.1492321 3.4351163 1.0121487
1.5355955 3.1861973 -0.037203129
0.84326136 2.510905 0.017370641
1.2155988 0.42629617 0
2.8697124 3.2750256 0
2.6910481 2.8252802 0.71848524
0.51542222 3.7978089 0
0.8125217 -0.7838394 0
2.3277848 -0.53575397 0
1.3525137 4.6944742 -0.47103301
0.27479613 -1.4 0.45854735
3.0365858 2.7415917 0.046959076
1.2581874 3.759836 -0.018340709
4.5 1.4982297 0.2444455
1.7638614 4.4151545 0.59525341
2.1179552 2.5974977 0.57441777
2.6885774 4.0247312 0.12344262
3.0282524 3.4573598 -0.02028852
3.077034 3.3940053 0.37133509
1.2018082 3.9524901 0.70974553
1.2767017 1.4654033 0.40979987
0.76001227 3.001431 0.24678718
1.0310899 1.1600404 -0.27177414
3.7250209 -1.4 0.78860903
4.061955 4.3297453 0.031787999
1.6911039 2.0876441 -0.099119797
2.8035164 5.3711205 0
2.0874472 4.0779119 -0.16350031
2.0778799 1.4610367 -0.17597407
-0.5 1.202947 0.73239672
1.9046412 0.62757891 0.63264424
1.5238562 1.5430391 0.28770217
3.0820849 2.1570659 0.59495509
-0.05550018 -1.4 0.47581482
-0.5 0.62495363 0.059374213
3.6058137 2.0877905 -0.15552512
4.0126758 2.4090438 0
1.8313832 5.1315484 -0.17393304
2.492528 1.2674377 0.9631626
3.5425432 4.9399424 0.15577991
1.9567544 1.5542238 0.49473107
0.8145622 3.9420767 0.6374836
2.455132 3.491606 0.025798319
1.6909978 4.4932947 -0.10566319
2.3548658 2.6748562 0
3.8842678 3.314868 0.25710815
2.2593684 0.25745189 0
2.8624697 5.4630628 -0.34138685
1.7784646 2.1124549 1.0091119
4.5 -0.96779621 0.49834818
1.845277 2.7967885 -0.22053729
3.4618118 4.3899779 -0.081870846
3.2949631 1.7509582 0.045033339
1.875187 3.5557714 -0.0053306632
1.7786851 1.1788895 -0.28758711
0.57160085 1.9755099 -0.02674664
1.5290303 4.1949835 0
3.1287673 4.534596 0.51752734
2.1854565 2.4164262 -0.14944021
3.6058111 0.90545034 0.052746002
3.6062684 2.2351453 -0.15062188
1.6240913 4.6462932 0.17612204
2.8707182 0.68175757 0.18436272
1.7037661 -0.18938625 0
2.0014238 2.8384857 0.056389309
1.1223514 3.910182 0.87773275
3.4375112 1.4702114 0
3.7912421 0.80282676 -0.12215703
0.38661039 4.4025431 0.33923733
-0.5 0.64152676 0.50947928
2.0474455 3.6257329 -0.40531361
3.8239307 1.9566159 0.029739469
1.9773962 -0.14588547 0
2.8120446 5.1746278 -0.28229275
1.0845475 1.8111176 0
3.4550352 1.4291792 0.051578574
1.5173696 4.1561213 -0.32373273
1.5575514 4.1352053 1.0679914
0.68402994 4.2742348 0.10356621
2.0166104 5.1150227 0
2.259603 4.5816755 1.0082972
0.20692104 -1.3977598 0
1.3019974 3.0542083 -0.142059
1.3254259 -1.4 0.96641731
0.24365848 4.1232619 0.019336449
1.0787562 4.1709476 0.031136848
1.4535434 2.2652507 0.5558157
4.5 0.34587383 0.79255056
2.9914138 4.4661517 -0.3928833
2.6863489 2.3130708 1.061789
2.5260682 4.0113983 0.01928474
1.1716826 2.9414935 0.23841304
1.6070637 2.6712346 0.65546542
1.4820977 -1.4000001 0.14236684
2.8435776 0.64317816 0.26492047
1.4305358 1.2732139 -0.00414705
1.2066914 1.3978996 -0.4769941
1.9208941 0.88347888 0.5830909
4.5 1.7844474 0.71686006
0.01932171 -1.4 0.3393172
2.9843519 -1.4 0.60868555
2.3466926 2.2344623 -0.20471939
3.4145391 4.3290391 0.062415145
1.0803175 5.4000001 0.53695279
1.4381592 2.7205606 0.039089322
0.898404 3.4375157 0.60699189
1.3823688 0.10162824 0
1.5173764 4.382555 -0.051361207
1.6764944 4.5129094 0.61732793
1.2042062 -0.29088402 0
2.7924252 3.8333149 0.63494968
3.3984334 1.8267951 -0.12491006
1.6215677 3.9047596 0.46843678
0.12106645 2.3753288 0
3.6462903 1.5834419 -0.34777641
1.8590482 2.4952581 0.56156319
2.8441575 2.762104 0.86357808
0.81100839 2.2055035 0.0096915551
3.3514705 0.76757193 -0.24066603
4.5 0.38041717 0.57462418
2.9486027 2.918891 0.16154526
3.0009804 3.099416 -0.143985
3.5263743 1.6828332 -0.052529424
-0.22547232 5.2318788 0
4.5 2.1182725 0.24924976
2.7155764 5.1593699 -0.27903688
2.3380492 -0.77473426 0
0.56584847 4.2917509 -0.29767835
2.882848 0.3379257 0
4.2790251 4.1540675 -0.15194021
1.3736823 5.2024727 0
2.6172204 -1.4 0.26014471
3.0809727 4.6409926 0.22707406
2.5340858 -0.91098022 0
0.47745615 5.4000001 0.61501765
2.3395934 4.4031925 0.23272499
2.4063256 0.24954998 0
1.9671743 3.4354765 0.065894626
2.7385325 3.7192044 0.10005566
-0.5 4.7661228 0.23283751
1.075289 1.5642871 0.002657894
0.6371181 1.6052282 0
0.84396827 1.4445173 -0.090235561
2.3207135 2.5930576 0.514395
0.788041 4.0284619 0.67538375
0.67293787 1.9853802 0.020564195
3.5135524 1.6085927 0.067281671
1.3978713 0.8899312 0
2.3121696 1.7257428 -0.27736199
-0.5 4.9816518 0.8824355
-0.39243251 3.3921916 0
2.9471455 2.7617795 0.017645096
1.66415 4.8141718 0.30156532
3.3558798 3.489161 -0.051044732
3.299401 4.3615689 0.066607848
3.0022821 1.7810364 0.60388833
1.7172704 1.4177585 -0.20909353
3.2908821 0.27000657 0
4.3419828 5.4000001 0.14279249
4.4843445 -1.208883 0
4.5 0.21067977 0.54869491
0.87267607 4.541954 0.072141223
2.2494495 0.93814701 0
4.5 3.276582 0.15482932
3.5360689 1.5461177 0.52875489
1.5980744 2.7791147 0.043059152
3.2485685 3.6641507 0.7622816
1.7769747 3.0717616 0.78939068
2.8586063 1.4854939 0
1.9921802 2.4048414 -0.5304845
2.396697 2.1683888 0.039790887
2.4778166 3.4655387 0.47022292
3.6478393 2.2206867 0
3.0090549 1.8000764 0.60332084
1.7724271 0.39844334 -0.026148746
3.6250453 4.6205106 0.0485989
2.7895272 1.0162315 0
3.0306048 2.8251772 -0.26033732
1.1510743 3.9202366 -0.25887108
2.50964 0.478149 -0.42917123
0.52124935 1.5342307 0
0.76363838 5.4000001 0.2742824
0.8176986 4.3233881 -0.2005865
4.4535561 5.3999996 0.4529441
1.7234459 4.4683738 -0.11477017
2.9727039 3.3449671 0.29102129
1.9609973 2.0837884 0
2.2462828 4.7012382 -0.17621343
1.9402297 1.857253 0.19559239
1.7330633 5.4000001 0.28795499
4.5 2.4171979 0.32444423
1.0549231 4.0766544 -0.30705354
1.8133353 0.33200479 -0.085724376
2.6278706 4.1852589 -0.042422861
1.4004787 2.5855772 0.56448078
1.5199471 1.9300132 -0.080495894
2.0703201 1.6599623 0.0059836516
2.2517979 1.9207622 -0.2578429
3.2714996 3.9057622 -0.14197648
2.6320057 4.6166048 0.051273428
1.5671721 0.83444554 0
1.964852 4.0323944 0.063431479
2.6388533 3.6061373 0.58533353
4.5 0.56769723 0.15012217
3.2660072 2.6939063 0
3.0050979 5.0768824 -0.26338828
1.8197546 5.1412125 -0.11801377
1.2365851 4.9423623 -0.10649946
3.4227128 -1.3999999 0.17214793
0.60171807 0.99555463 0
1.7876533 1.2968736 0.047770016
2.0521731 2.1019154 -0.40427738
1.66594 1.7916054 -0.076898247
4.5 -0.52918816 0.59425759
2.2607412 1.9238007 -0.21863665
0.73125923 -1.1427236 0
1.9660842 2.759239 -0.22608078
-0.5 0.79410148 0.89153481
1.7255156 -0.5544917 0
2.7390199 2.2843213 -0.16922654
3.1640851 5.594553 0.36917987
2.1865249 1.3432567 0.039830957
1.6250629 1.1142694 -0.24697724
0.91939139 -0.89897758 0
2.637409 1.3781551 0.11286907
1.6740032 3.0777769 -0.13189448
2.1132991 4.5459809 -0.26320669
2.9428995 5.1557312 0
0.99603415 4.0878057 0.85159832
-0.19379753 3.4968166 0
3.5375257 1.5062151 0.028285189
2.6008155 3.7207963 -0.0045537576
0.95250541 1.6772773 0
2.2013254 2.5067999 -0.27336118
3.833534 1.9055111 -0.25056744
1.991804 0.11236435 0
0.77159947 2.8485928 0.51124096
2.7598226 3.0038004 1.0241672
2.6039865 5.2853522 0
2.7413273 3.6883759 0.10548769
0.99266374 2.5105634 0.093128234
4.0981884 4.9684229 0.0064880624
3.1289406 4.424222 0.45946884
3.4799891 0.72300285 0
1.1002935 2.3351426 0.07316862
3.095892 2.3926435 -0.19916126
2.8616943 3.1027546 0.73113871
2.8233821 5.354301 0
0.78616774 3.5855169 0.0013287674
1.8749523 3.2037225 -0.029201409
3.7991261 1.9988511 0.19461849
0.82186353 3.8868115 1.0271262
0.81282103 2.775558 0.41449293
3.0762684 1.6225291 -0.040742081
3.0919044 0.96920794 0
2.9820557 2.5361714 -0.35341042
2.4844644 1.3119276 0.90401316
-0.32033628 0.97490448 0
1.0549231 4.7289634 -0.049345456
1.3542175 0.56261885 0.41629598
2.749402 2.8460867 -0.045801975
3.3710723 1.8252099 0.033277944
2.7996087 4.1209917 0.82065398
4.0207949 4.6196899 0.23578055
3.06353 5.6103687 -0.079753846
0.40761781 1.3228114 0
0.89254069 -1.4 0.12106754
4.5 0.62352741 0.46543872
1.9529176 4.1638999 0.63043779
1.2147536 4.0225458 0.67379165
3.0241725 1.3094683 0.78125072
2.2220826 3.6705139 -0.044859663
3.0482674 3.6109509 0.6530655
1.7471458 2.3170907 0.72638351
2.4453743 3.3791971 0.68928671
1.1217121 1.968472 -0.1832798
0.78813851 4.2831302 0.86687541
3.5600159 3.7175782 0.062700711
1.0351102 4.2159724 0.30645922
4.3740191 0.21362576 0
1.941407 4.4786391 -0.052409105
0.58930558 1.9632421 -0.24967287
3.298032 1.2778602 -0.33144292
3.327878 2.1968391 -0.34993151
0.48044106 4.0986199 0.45435414
4.4887896 3.5550466 0
1.3791418 1.8535309 -0.069652677
-0.5 2.2301517 0.37344879
2.7559621 5.47504 0.11772482
1.2675271 3.1741016 -0.0921074
0.98996258 1.7351971 -0.34455001
2.1451793 0.88109171 -0.047466956
1.1395631 1.3174471 -0.30313909
3.1908014 1.6832703 0.036873437
2.2655649 5.301363 0.39180547
1.6709899 1.5951552 -0.17568827
1.8712592 3.0295033 -0.42900825
3.5645678 5.3999996 0.27392447
2.935905 1.1794827 0.86161995
2.9047456 3.1112421 0.11969736
3.9652982 5.0751801 0.079585657
2.1344366 -0.039661407 0
1.683692 3.5888476 0.010399172
3.3249996 1.3327111 0.71613824
2.4131072 1.4696677 0
4.2165718 -1.4 0.74123621
-0.5 1.4082986 0.75677395
4.5 -1.1609013 0.51084423
1.5912528 2.3031299 0.038205691
-0.5 0.88991261 0.051142812
0.13173476 2.956352 0
1.0979195 2.8130577 0.3187907
3.2269909 3.2876592 0
1.9243956 3.5067074 0.047898993
1.7319779 2.0368817 0.8230477
3.6907017 3.3386345 0.19123779
2.6540711 2.392972 0.052721787
3.8017645 1.9539099 0.30120721
2.0760045 2.4312527 0.34060767
1.5851727 2.1776032 -0.053829007
1.3284957 2.2572985 0.30044857
0.63804513 2.9495771 0.44916576
1.3938415 0.75013256 -0.50529343
3.4306157 5.0715828 -0.20367613
1.8254777 3.8136051 -0.060462326
2.0464001 2.023387 1.1526194
1.7451128 5.1818852 0.006843945
2.7624004 2.2434709 -0.20006654
1.46447 4.5341578 -0.28987074
2.9147818 4.5198412 0.11082608
2.1701565 3.5963297 -0.012325699
1.7881422 0.36993498 -0.13533549
0.7311452 2.9494061 -0.18979363
3.2620435 3.2499294 0.052746002
0.95828289 4.5485849 -0.19877811
3.0661979 5.3880138 0.41308981
0.97166765 1.7291157 -0.36299711
1.872473 3.3901615 -0.064299822
2.9273534 2.5238132 0.79601276
3.2235186 4.1128745 0.11051965
3.4239488 4.013113 0.08807072
1.9734657 2.9343328 -0.36023265
1.9588553 5.4000001 0.29018682
2.8578537 4.4509211 0.67055869
1.9788527 2.1938126 0.59412354
2.4628396 1.4494476 0.052746002
1.2449042 4.1373596 0.018343497
3.0535126 2.7906187 0
2.3400149 2.570801 -0.26701009
2.8861055 4.711875 0.44122902
2.8145232 4.4738169 0.59309423
2.6899214 3.0034633 0.010204889
1.398962 2.7724452 0.11751239
3.765332 5.3999996 0.2597774
1.6557684 1.5467615 -0.020804472
2.7378685 2.703124 0.72813541
0.2542811 4.6058884 0.40050825
1.3111151 2.3115633 0
0.52975762 5.4000006 0.79114926
0.053592965 5.4000001 0.65182674
4.5 2.3731198 0.62237227
2.8099823 3.6764088 0.42551193
-0.42050448 0.30465722 0
2.3791099 4.4190803 1.0786026
3.6306295 -0.87085783 0
2.9330907 1.0938445 -0.37423378
2.6989162 1.1132253 0.72086668
3.5923088 2.9773574 0.61631399
-0.36636102 5.4000001 0.92835361
1.2286954 1.2270614 0.54764599
3.7938335 4.5112395 -0.2988919
1.1335138 4.3244505 0.40741453
1.3616683 5.4000006 0.13075033
4.5 -0.92367572 0.85484838
0.69602269 4.1215925 0.033456948
3.760159 1.9566488 -0.19111955
3.4387636 0.82745945 0.082226194
3.166795 4.6093512 0.43044129
-0.5 3.5145121 0.24316627
4.5 2.4891291 0.36723506
2.8731539 2.5925472 0.043920085
-0.26648176 -1.4 0.18786338
2.8175907 3.7958765 -0.48303276
3.8227005 1.7354628 0.30829579
3.3869922 4.6011996 0
3.1992154 4.2407026 -0.10941212
1.6479018 0.54408354 0
3.0919321 2.1289699 0.26012814
1.3500966 1.8261328 -0.10450613
1.5209016 4.6363788 -0.46628749
2.0969474 4.1772733 -0.0049385107
2.1906121 3.1716185 -0.16978522
-0.5 4.7428493 0.38662639
1.7476504 3.3012981 1.2240849
1.8246557 3.3900917 0.15775241
1.4384314 4.848485 0.095029078
1.7422593 3.9516704 0.72917783
1.8736541 1.6944474 0.024681689
3.0642276 0.66547287 0.26080582
3.3949521 3.4725492 -0.14380558
1.7682261 1.6509991 -0.18918958
3.5479045 2.1578426 0.56940842
1.371724 4.2570443 -0.017066441
2.0361729 2.8979688 -0.031303864
3.4284139 0.99251509 0.33246988
0.83312178 3.7333188 0.99264002
2.7855487 3.743269 0.58868599
1.1420952 1.9710582 -0.18008384
0.97894758 4.3669662 0.047398753
0.97196662 -1.1633813 0
3.3183081 5.1451306 -0.13415086
0.48578107 3.1586576 0.14008997
2.5605049 -1.4 0.43322584
3.1521218 2.01371 0.059787475
4.5 2.8072233 0.86669642
1.8685136 1.5154303 -0.27594259
2.170666 3.087837 -0.26051465
1.9186852 2.390563 -0.10200009
0.30456716 -0.14045358 0
1.2512734 1.9834564 -0.35919067
1.5038495 1.4194688 -0.2912437
1.196578 4.1579623 0.95708406
4.5 4.6099854 0.69526136
0.55795753 3.4422708 0.40804884
-0.5 0.72076088 0.90693474
2.1644454 0.89737564 0.01890659
-0.5 5.2488022 0.026180943
2.9366093 0.86701733 -0.047775
3.0559454 1.7244655 0
0.34663996 5.1983833 0
3.2463455 1.7518715 -0.011173516
1.8554876 2.8661149 -0.092913277
2.5614126 0.37468857 -0.22998522
1.9712586 3.1291177 -0.010913568
2.3249507 0.97915769 -0.04965312
1.9475061 2.7556241 0.073082566
1.8232901 1.9029043 -0.2957575
2.2423489 3.5990486 -0.21402146
0.70479524 3.7644894 0.94180155
1.7143831 1.078877 0.037917562
3.1765325 3.9968538 -0.25385728
4.4789004 3.7067862 0
3.3882027 4.2983837 -0.23040766
2.5923319 2.4876642 0.8777113
0.30995616 3.3760958 0
0.97456467 1.988409 0.020920707
1.4374601 2.2709527 0.36819443
1.4813116 3.1674585 -0.055228766
-0.5 2.6258321 0.87687302
1.7762935 4.0303884 0.51244873
2.8965454 4.4910321 -0.039075732
0.33769697 4.8084602 -0.039700091
2.9701197 1.4686625 0.40499011
1.5533406 4.7246289 0.39994413
3.9172578 3.9990802 -0.078457788
2.2877917 4.992764 0
1.3576223 -1.4 0.76216751
2.2883105 2.1445606 0
-0.5 -0.21312004 0.38806033
2.0641522 0.72215772 0.16326885
2.4501376 4.8780794 0.42347604
1.3469844 4.0684628 -0.15509859
4.5 4.0156684 0.36214894
2.4022138 3.8828421 0
2.2819614 4.1079431 -0.29088196
2.1846316 3.4113643 0.0043731928
2.7332373 3.7917376 -0.5090434
1.7926688 3.8054891 0.82653844
1.6780554 2.6412475 -0.098385431
2.8078713 2.8461781 0
1.0519161 2.0348744 -0.29366836
2.1950736 3.521466 0.60936952
2.3921602 1.0938629 0.66413945
4.3378763 -0.98797548 0
2.0755644 2.1259439 -0.40536988
2.8842907 4.4515486 0.72220445
2.9517336 1.7040942 0.010360815
1.9069166 3.8585222 0
1.7429929 1.2252851 -0.41230842
1.6708974 3.7169182 0
4.2515602 2.869174 0
3.9013519 5.4000001 0.27840674
2.7478216 2.6284671 1.1679715
2.2984622 1.6988064 -0.42200601
1.5444672 4.1457872 -0.34886149
0.99958193 4.5779419 -0.27265978
2.0465984 4.064559 0.79142952
2.8684657 3.1790481 0.30183896
1.4691501 -0.67386365 0
2.5757909 2.102834 0
0.87856966 4.0589581 -0.11803614
1.4037921 3.9423399 0
1.9976424 4.7913423 -0.027114421
1.9198003 5.0667906 0.12696354
3.7688506 4.1633739 -0.16186063
2.0317676 1.6751072 0.466692
1.4395685 4.600872 0
1.587912 2.7478998 -0.23509581
1.4051379 1.902683 0.068210937
1.4396043 0.61339593 -0.30637932
1.6870809 4.4750991 -0.17239015
3.1797378 2.8802712 0
2.9557285 3.2877047 0.25354967
2.8754175 3.66134 0.85690761
2.9056268 4.3071899 0.85048473
-0.5 4.4500704 0.44377846
2.915385 2.1462648 0.092038117
1.3354539 3.0732753 -0.099483714
4.5 0.63755834 0.12229943
2.3022182 3.1531579 -0.13926359
4.5 1.4112184 0.12358129
4.2477093 5.1441026 0
3.0782769 -1.4 0.77430362
3.2324224 1.5401073 0.0059415298
3.2897601 1.377944 -0.056896754
1.3263859 3.0142939 0
3.491482 2.5719867 -0.1416505
2.980834 0.7063359 0.15226012
3.1310763 4.0446429 -0.37353951
1.6057556 3.3283918 0.69961536
1.8315866 3.2201641 0.84932005
1.5423598 2.4331508 -0.3439647
2.7391381 1.5186954 -0.11016562
1.2165594 4.5087819 -0.26747882
2.3337541 5.4000006 0.65625244
1.8644112 5.0838213 0.49379706
1.3687575 2.0580845 0
0.98557293 1.5803846 -0.077220738
1.559895 4.463058 0.015551306
1.1347896 -0.83223313 0
4.4368153 -0.42568257 0
1.2406838 3.6809874 1.1336535
3.8005474 4.5390186 -0.20531884
1.9618778 3.3447707 0.81224036
3.1850345 0.64579809 0.32976818
1.9333227 2.6664927 0.66351116
1.8157063 4.559978 -0.025647111
2.6799674 4.4381809 0.1502167
1.058854 2.8265436 -0.080760315
2.5287099 3.66134 1.0996991
3.7376416 -1.1580881 0
1.5922694 2.993252 -0.22490165
1.1158584 1.4608002 -0.49891973
2.1029856 -1.4 0.062741265
1.4873215 2.5773587 -0.16618672
4.5 4.8809471 0.32766423
2.0769923 2.3081832 -0.11601934
1.1503302 4.297852 0.38413084
1.7285639 1.4764321 -0.41309297
1.4872383 5.0807028 -0.11160123
1.3431933 1.0197418 0.053050853
2.5958626 0.37973106 -0.085391209
1.0994527 3.9749031 0.61145556
4.5 -0.65808773 0.36858982
3.7984276 -0.42551494 0
1.1384069 3.7816224 0.054695521
1.4667184 2.2716789 0.55034709
1.033265 -0.89452314 0
3.2948737 2.1079123 -0.19078927
1.5534316 -1.3259742 0
1.8954433 3.3943608 0.053221148
1.8597568 2.7897761 0
3.2709281 4.5337076 0.084235206
1.2927639 1.9931104 -0.017903488
1.883649 3.2176118 0.66640031
4.5 5.1553688 0.45628503
-0.5 4.011241 0.64943874
1.0085086 1.9808462 -0.20445454
1.5384831 1.1415222 -0.083977677
2.7266722 2.7172568 -0.11497997
2.1044202 3.0844674 -0.1320678
3.4523361 4.5846343 0.10109854
4.5 4.1720686 0.97449744
1.9279879 1.7081106 -0.10729557
3.0762043 4.6166048 -0.09541022
2.0202172 1.2240925 0
1.9525203 0.74762106 -0.11143696
3.5095434 -0.32124734 0
1.6678237 0.56101406 0.10378873
3.043947 2.5953972 0
1.1265891 1.5879092 -0.027180657
1.2703931 0.88510942 0.021757549
2.9811206 3.1601813 -0.21568622
3.0552096 3.5042727 -0.25825149
3.0309811 3.0409029 0.023332613
3.636744 2.1637669 0.021321272
2.3863707 1.5313278 -0.10817751
3.0401959 3.2329295 0.038647823
1.7820823 3.5466332 1.2778749
1.3245742 3.5375421 0.052746002
1.1604915 2.2288227 0
2.7460108 2.3258953 0.39533404
3.2767339 1.7275372 0
4.4634113 4.0549259 0
3.3164973 1.0796003 -0.23842312
1.1954889 2.4994853 0
3.6361027 3.7976053 0
1.5042994 2.7472696 0.052411474
2.6253595 -0.7511341 0
0.28589711 4.6814919 0
2.0078087 1.5924673 0.373463
2.881793 4.601016 0
4.2582045 3.8037086 0
3.2560382 5.2868619 0.27343568
3.3164971 1.08066 -0.22966802
4.3462276 4.2510824 0
2.2727261 4.6274314 0.14811806
0.83443558 3.7388144 0.089216352
3.4284811 5.3999996 0.29150099
3.3787231 4.9620013 0
-0.5 4.308558 0.33576852
4.2745671 5.012774 0
3.0957601 4.3101282 -0.19718683
-0.41972429 5.0246863 0
1.8603947 3.9988909 0.063225068
3.9558392 4.8379698 0.2100202
2.1031046 4.5133953 0.046238348
2.6609702 2.5983932 0.83775473
2.7588699 3.1003113 0.62487912
1.2918723 5.0090094 0
1.5657982 1.8956206 -0.22337638
0.85590851 0.82536256 -0.04257584
2.7712379 0.68245018 -0.16130725
1.8173981 4.9984388 -0.21538748
3.3291276 5.0891194 -0.034315914
1.6236939 -0.42836091 0
3.161304 4.8431845 0.4406172
0.97810531 2.6566739 0.18555786
2.5027289 0.82385278 -0.4290188
2.5941603 4.0325379 -0.3448568
2.1117144 3.398849 0.021462396
1.7930288 1.8226186 0.061142847
4.0374055 3.2689533 0.014658794
2.3512866 4.1580577 0.63796616
1.0421865 -1.4 0.60248047
1.654284 0.76799768 0.66768193
2.4373665 -0.52154851 0
0.61032426 1.1351213 -0.073504351
2.7548685 0.77973771 0.54732251
1.0009893 4.3139968 -0.031885948
4.0420856 5.4000001 0.65290332
2.7793059 0.81475818 0.052746005
2.8731294 1.7205834 0.0049582724
1.7906113 4.0053406 -0.10971498
-0.36834276 4.2196331 0
1.4089731 3.3651328 0.4317123
3.195776 4.1218696 0.084061444
2.1134815 0.29224464 -0.23955399
2.9037867 3.116385 -0.054107446
1.8277872 2.9892995 -0.0013114903
4.5 2.8658934 0.24524546
0.54754716 2.7309294 0.15994349
2.9714899 1.7068727 0
2.6037812 2.4222951 1.1452526
0.7171489 3.0635626 0.049150676
3.2518277 1.7369061 0.14081927
1.1727484 4.2122884 0.51360863
1.4257495 2.3842969 0.30294758
0.81912458 4.1377482 -0.23724723
2.7179751 1.5652221 0.18151513
2.893322 1.1728455 -0.043230686
2.0778799 1.3774848 -0.13007922
1.881976 4.5678658 -0.042329356
2.3517799 -0.81358242 0
1.7448181 3.4457254 0.052746005
2.3919134 1.344276 -0.43587786
3.3071818 3.1964524 0.69736946
2.37463 3.6150351 1.0423038
2.6351886 3.2269552 -0.31166166
1.8346455 1.6132005 0.76587576
2.0799997 1.9035944 1.1391888
2.1177127 4.4549665 -0.23670727
1.5662212 -0.30941683 0
1.094726 4.1596899 0.0090902345
3.9838426 3.2369971 0.29468301
1.6790326 1.5670576 0.56212032
4.5 -0.72233737 0.086487651
3.0134087 1.459331 0.13786316
1.5465188 1.1958946 -0.11088875
3.2235548 4.4128752 -0.05097856
4.1671643 4.9748468 0.17924941
0.052868903 -1.386966 0
1.4415276 -0.90331137 0
3.9104471 3.0005534 0.29848588
0.44555238 0.43097448 0
1.991883 5.229743 0.44724134
0.63676393 1.9020368 -0.38122368
0.54159904 2.7513139 0.022108942
1.490464 4.1611142 0.71543992
1.3642205 3.1645684 -0.11078156
1.4182123 -0.35135603 0
3.534718 2.816694 0.060832437
0.75124615 2.7416797 0.37807459
2.7725396 3.8547964 0.4641701
1.5990621 2.0540731 0
1.2381731 4.8277311 -0.47103301
2.2447183 3.8561251 0.64183903
2.6128447 0.31100792 0
-0.5 1.1373489 0.41485447
1.2067289 4.2055645 0.18615106
1.5801976 3.2209988 0.40071478
3.9404285 3.1416023 0
4.014575 3.2689531 -0.0261731
4.4473591 0.2330658 0
0.63415807 1.6894033 0
3.0284271 3.9991388 0.072811268
3.0819266 2.0539136 0.086885557
1.7580616 2.8580434 -0.0011757445
2.7727399 4.3478961 1.0120432
1.5104148 4.8151517 -0.45937473
3.1876216 4.5491199 0.020566463
2.6068852 3.9971464 0
1.476691 4.38656 0.59112155
2.2101274 0.39124423 0
1.0825043 3.5104966 0.076700673
0.78100085 4.0214467 0.65468836
1.7122643 2.7580614 -0.19539751
2.6792648 4.2616625 0.53046411
1.1697973 4.3938932 0
1.0579504 1.9605618 0
2.7328537 2.1501231 -0.34297961
3.734498 2.3903322 0.19148543
1.1712319 4.4622688 0.58430743
3.7001023 2.7043493 0.16506012
1.2407936 4.3440342 0.39813796
3.1154833 4.3661385 -0.36952072
0.11698696 5.4000006 0.48152688
4.2793489 2.4293921 0
0.45121557 4.8367777 0.3139154
1.824259 1.3563554 0.044422999
2.0801718 3.5854161 0.55538762
2.9707737 4.5355439 0.095827825
1.9610841 2.6105993 -0.17764927
0.87830305 4.5613642 0.34538755
2.1901248 3.7873571 0.63343811
1.3494308 3.9835432 0.04385772
1.6460284 4.561913 0.4897548
3.8095798 2.8134973 -0.088067554
3.9247713 0.58508283 0
1.2582982 2.7518167 -0.23731831
0.91301668 4.0481768 -0.018928677
3.593884 2.6557806 -0.12996784
1.4939989 4.4346361 -0.32999504
3.9200249 4.0835128 -0.0041160677
2.6784163 3.7404969 1.0302041
3.7728693 3.6650622 0
3.1122222 1.2732404 0
1.3072741 2.5509734 -0.45768219
3.7001021 2.8716078 0.20397127
1.7397876 2.2279394 0.68665475
0.96948421 4.7250252 -0.11857183
1.1766572 3.8268032 0.059925862
2.0831671 3.5306263 0.61040801
2.1681111 1.7234739 0.013687702
2.7197263 1.2936707 0.64108837
4.5 0.026912987 0.70647424
2.3083591 3.8925076 0.76379973
2.0968533 4.2898436 0.022468252
2.7526762 4.5475149 0.44536662
0.63603145 3.3148882 0.79431045
1.253834 3.422735 -0.097218521
-0.28301322 2.8015695 0
2.340399 0.78609109 0
1.0065805 4.2403865 0.046183009
2.6277132 -1.4 0.39155552
0.40278769 5.4000001 0.62715971
3.3311496 5.059144 0.13808164
4.5 4.2270751 0.55036408
2.1892025 1.1379058 0.048055168
2.2293098 4.5859394 0.50956762
2.6687758 2.6840672 0.86616397
1.1435287 2.0234313 -0.068416916
3.8088508 3.615823 0.0068696104
3.0135233 -1.4 0.77608937
3.3560014 2.5372646 -0.0955531
2.7013359 4.0156846 -0.51329064
2.7257409 -1.3999999 0.7555871
4.5 3.8762989 0.86882013
1.6144478 2.7454736 -0.23934032
0.83882409 4.8403492 0.22203921
2.5412412 3.9259384 0.06361483
4.5 0.51650959 0.50667548
0.61072707 -1.4 0.88851386
1.2363966 4.9609628 -0.19462267
0.5461967 1.9671974 -0.093028799
-0.27473152 -1.4 0.25897157
1.1018918 4.1298642 0.51057911
1.7118134 1.6050634 0
0.30530721 4.8141723 0.017942186
0.87634587 4.0229826 0
1.0067468 3.46784 0.63888633
3.257509 1.9238634 -0.094086125
-0.5 -0.975052 0.80142552
3.0566659 4.5632052 -0.0087416768
1.6220268 1.1611495 0
2.1627202 2.0565987 0
4.5 2.1089339 0.55078661
3.1419201 3.6648674 -0.33616051
3.0661025 3.6800568 0.061134249
1.17496 2.5226135 -0.41006878
1.4881572 3.5796101 -0.33019489
2.5365148 2.915894 -0.33151805
1.8534889 4.5447245 0.58127701
4.1322298 -0.76863116 0
2.6371217 1.9737538 -0.18757342
0.45241106 1.5704353 0
1.7794132 1.173682 0
1.9689746 3.3405161 -0.18695131
2.1029918 0.36493134 0.052746002
2.0676818 0.32025981 -0.068497494
0.24586868 2.7257671 0
1.7163316 1.3512921 0.62452042
2.0777364 1.2492747 -0.35600102
2.0673008 2.6218762 0.87106013
0.61473197 4.8829126 0.36656901
-0.33524176 0.88548082 0
1.7627698 5.1545925 0.12697788
3.2688446 1.070169 -0.32028913
2.2892904 2.9136064 0.9201194
0.98483574 2.6654024 0.093068928
3.374351 1.3522412 -0.18919419
1.1404969 4.0826321 0.049104288
2.015584 0.64551282 0
4.5 0.88489467 0.71747643
0.53701127 2.9376566 0.5170902
3.330256 3.3222659 -0.31818855
1.5432832 2.4706833 0.012917434
3.7228508 4.1475706 0.056816585
3.4110699 -0.0039526224 0
1.7340553 4.3471475 0.9124037
3.6359632 -1.4 0.17863178
3.1113524 0.90164077 0.052746005
2.7852306 2.8745415 0.56543052
