# .PCD v0.7 - Point Cloud Data file format
VERSION 0.7
FIELDS x y z
SIZE 4 4 4
TYPE F F F
COUNT 1 1 1
WIDTH 983
HEIGHT 1
VIEWPOINT 0 0 0 1 0 0 0
POINTS 983
DATA ascii
-1.1379322 -3.0170327e-06 -0.18023045
-1.3913209 -3.6893139e-06 -0.17083246
-1.7756453 -4.7090002e-06 -0.15534858
-2.5172141 -6.6764619e-06 -0.13192138
-2.5669136 -6.8091454e-06 -0.044805557
-2.5653501 -6.8058616e-06 0.044778302
-2.5653076 -6.8074819e-06 0.22443502
-2.5540228 -6.7801693e-06 0.49645099
-2.5602155 -6.7984256e-06 0.68600661
-1.1390082 -0.016306169 -0.18041937
-1.1358474 -0.032525491 -0.17997402
-2.5363581 -0.072629735 0.49321944
-2.5341833 -0.07256747 0.67930967
-2.533613 -0.10886052 0.31137514
-2.5306582 -0.21786256 -0.13311653
-2.5581179 -0.22022654 -0.044817191
-2.5540693 -0.219878 0.044746291
-2.5363929 -0.21835625 0.1334182
-2.5490801 -0.21944849 0.22384019
-2.5458033 -0.2191664 0.49668369
-2.5225577 -0.21716522 0.67841637
-1.1368147 -0.11428015 -0.18096098
-2.5254323 -0.25387317 0.40200457
-2.5212877 -0.25345653 0.49255803
-1.7919164 -0.20608036 -0.15780547
-1.3899385 -0.22065805 -0.17279993
-2.5411208 -0.40341267 -0.13484202
-2.5302014 -0.40167919 0.044717856
-2.5307353 -0.40176395 0.3146261
-2.5279703 -0.40132496 0.49754053
-2.5347383 -0.43967941 -0.13482349
-2.5494399 -0.44222954 0.04516511
-2.5103362 -0.43544656 0.68268603
-1.1271688 -0.21218084 -0.18166123
-1.7990787 -0.41934958 -0.16161805
-2.5187697 -0.62524164 -0.13600911
-2.5323322 -0.62860829 0.045543462
-2.5251822 -0.62683344 0.22762941
-2.5109441 -0.62329906 0.50289017
-2.4975913 -0.61998439 0.68953705
-1.3835227 -0.40722042 -0.1770806
-2.5141158 -0.81888199 -0.13857199
-2.492074 -0.81170267 0.045748513
-2.5084088 -0.8170231 0.23080467
-2.5083857 -0.81701559 0.51279175
-2.4894841 -0.81085902 0.70154613
-1.796255 -0.61363631 -0.16606885
-1.086233 -0.40615341 -0.18367533
-2.5091043 -1.0209522 -0.14196534
-2.4958582 -1.0155625 0.047033731
-2.4903047 -1.0133028 0.23521893
-2.4928262 -1.0143287 0.42625794
-2.4735749 -1.0064954 0.71555895
-1.3290204 -0.60851508 -0.17947473
-1.7474507 -0.80010068 -0.16814525
-1.3304275 -0.63234657 -0.18086849
-1.729293 -0.85247731 -0.16867763
-2.4770122 -1.2210751 -0.14473081
-2.4784415 -1.2217797 0.04823222
-2.4718654 -1.2185379 0.24110915
-2.4614911 -1.2134238 0.4346582
-2.4586573 -1.2120268 0.63284761
-2.4765639 -1.4024148 -0.049678326
-1.0317035 -0.60388929 -0.18933998
-2.4780173 -1.4504633 0.050118811
-2.461741 -1.4409362 0.24955659
-2.4494677 -1.4337522 0.44953045
-2.4431837 -1.4300741 0.65357453
-1.6991295 -1.0274839 -0.17372069
-1.2700764 -0.81856942 -0.18552837
-2.4553981 -1.6327214 -0.15453395
-2.4548118 -1.6323315 0.051457167
-2.4481504 -1.627902 0.25721487
-2.4279215 -1.6144507 0.46179938
-2.4309795 -1.6164842 0.67398709
-0.81255084 -0.61012858 -0.19751303
-1.6237522 -1.2192439 -0.17764971
-2.4123528 -1.8113886 -0.15809914
-2.4318016 -1.8259922 0.053081419
-2.4293971 -1.8241868 0.26579282
-2.4296103 -1.8243469 0.48121822
-2.4213619 -1.8181535 0.69906372
-1.5948279 -1.3082502 -0.18046817
-1.1858178 -1.0014677 -0.19057707
-2.4323947 -2.0542488 -0.055573083
-2.4278522 -2.0504124 0.055469289
-2.4154608 -2.0399475 0.27660543
-0.93527538 -0.8130911 -0.19628507
-2.3277659 -2.0829041 -0.16370159
-1.5481257 -1.4256947 -0.18412748
-2.4126611 -2.2218597 -0.057250388
-2.4100485 -2.2194536 0.057188384
-1.5199975 -1.4405357 -0.18321559
-1.1279531 -1.1000537 -0.19345441
-2.2875044 -2.2309244 -0.16745634
-0.72172451 -0.74535167 -0.20167199
0.82132214 -0.3831872 -0.17616907
0.90954858 -0.39305562 -0.15693401
0.98727894 -0.40997902 -0.1693158
0.83486193 -0.34668607 0.047375672
0.86143667 -0.34335056 -0.18025671
0.87411463 -0.34840375 0.049315095
1.0957631 -0.4007993 -0.14326033
1.1023413 -0.38540936 -0.10216687
0.85890567 -0.28656945 0.2426144
1.2756101 -0.40540624 -0.16434474
1.0798389 -0.34318748 0.019777631
1.2838893 -0.38789603 -0.11734021
0.93770456 -0.28330472 0.2261505
1.4207894 -0.40715989 -0.18147273
1.411467 -0.38271555 -0.2316263
1.5100164 -0.40943697 -0.1921012
1.514799 -0.38754764 -0.13679609
1.2845424 -0.32863858 0.023143897
0.99678922 -0.23987362 -0.19928724
1.7162941 -0.41301975 -0.2167501
1.1054119 -0.26601326 0.22100404
1.7259504 -0.38929826 -0.15479435
1.868019 -0.39333498 -0.23439302
1.5236795 -0.32082996 0.027179062
1.0139322 -0.19838545 -0.20082526
1.8491566 -0.36180502 -0.23135273
2.0158882 -0.39442763 -0.17971131
2.1053398 -0.38072872 -0.1871807
1.7623526 -0.31870309 0.031260874
1.3968055 -0.25259772 0.22482029
2.1217909 -0.35242134 -0.11272163
2.2169442 -0.36822593 0.039226979
2.0268369 -0.33664986 0.25227335
1.8006532 -0.29908162 0.35480615
1.6524963 -0.27447334 0.38673496
1.6419601 -0.27272332 0.44598874
1.2540201 -0.17156592 -0.2004672
1.26959 -0.13680826 -0.20224711
2.2887127 -0.2466267 -0.12064058
2.2661836 -0.24419904 0.039785303
2.0637822 -0.22238868 0.25486714
1.8161525 -0.19570464 0.42171848
1.0929581 -0.1177748 0.29455218
1.9229232 -0.17940962 -0.23713036
2.3828676 -0.22232264 -0.20937902
2.1262519 -0.19838029 0.18683055
2.0757196 -0.19366559 0.2559728
2.0285218 -0.18926202 0.32268113
1.0389514 -0.096934646 0.27959481
2.5079739 -0.19783314 -0.22010057
2.5153563 -0.19841547 -0.13223355
2.361896 -0.18631026 -0.04135507
2.2964342 -0.18114653 0.040208843
2.707891 -0.17464645 -0.04736457
2.9001496 -0.14540084 -0.050685827
3.1684558 -0.11341958 -0.055340964
3.307883 -0.071026936 -0.17339852
0.94574511 -0.020307066 0.21839246
1.0973805 -0.0078532575 0.21331429
1.1014301 0.0078822356 -0.21410149
1.3461002 0.0096331835 -0.21320647
1.9419416 0.013897241 -0.23844622
3.3411882 0.023910757 -0.29232317
3.30883 0.023679189 -0.17341265
3.2144244 0.023003586 0.056109317
2.2824414 0.016333977 0.11962055
2.2445264 0.016062643 0.19637534
2.1723325 0.015545997 0.26673529
1.027442 0.0073527456 0.19971929
3.1620839 0.067896336 -0.27670988
3.2466583 0.069712326 -0.056683633
1.1791307 0.025318321 0.18679871
0.92309594 0.033043589 -0.21324965
2.9957054 0.15019159 0.26241902
2.274909 0.11405399 0.27967408
3.1601684 0.20381626 -0.27705297
3.2608631 0.21031058 -0.1712494
3.2174389 0.20750993 0.056277186
3.0323915 0.23920007 0.26612356
1.8197283 0.16978148 -0.2244046
1.2817934 0.11959191 0.11262926
1.8248506 0.22310597 -0.22573152
3.110049 0.42549431 -0.27462834
3.222549 0.44088575 -0.17045966
3.2276678 0.44158608 0.056863874
2.9591761 0.49150783 -0.26244089
1.1872318 0.21469848 -0.19108874
1.1556191 0.20898166 0.10274331
3.2231481 0.63063949 -0.17212075
3.2182753 0.62968606 0.05724027
2.6432109 0.51716924 0.14115123
2.7145727 0.57158756 -0.24270174
0.95540017 0.20117158 0.11988053
0.95262736 0.21487072 -0.18982364
1.8599617 0.41952533 -0.23411152
2.6961074 0.60812289 -0.24180427
1.8995945 0.42846474 0.033990476
1.7317611 0.39060894 0.093037643
1.9777174 0.47593033 -0.10660654
1.8004382 0.43326873 -0.032323889
1.6543334 0.39810914 0.029700805
1.0971216 0.28068864 -0.1793635
1.6029632 0.41010368 -0.028880984
1.3865142 0.35472715 0.075004421
0.89132947 0.24168164 -0.17951268
1.5582576 0.42251745 -0.19823831
1.4195545 0.38490847 -0.025673097
1.3839715 0.41813344 -0.17751634
1.258769 0.40005392 0.023054808
1.2793165 0.4065842 0.070350602
1.2053493 0.40215856 -0.06659282
0.85938251 0.30046415 -0.17696238
0.93436414 0.40377951 -0.16121568
0.90742236 0.40764663 0.12214368
0.84622216 0.45548266 -0.15221013
0.85258865 0.49088687 0.1207962
0.27298227 0.8697027 -0.079749145
0.25843939 0.86658704 -0.11103428
0.25790733 0.86480296 0.047294881
0.22470798 1.0131102 0.018113645
0.23235893 1.047605 0.056236841
0.18801555 0.90903401 -0.18043792
0.19715975 0.95324516 0.22473159
0.20199458 1.1402578 0.22509423
0.059998095 0.98511732 -0.15631612
0.050945975 1.0944244 -0.13452372
0.053016338 1.1389 0.019901084
0.054166403 1.1636057 0.22642663
-0.047407899 1.2039082 0.19082785
-0.064804249 1.206287 0.23481622
-0.14590381 1.1589627 -0.14342573
-0.14613116 1.1607686 0.0204212
-0.14812919 1.1766397 0.23052055
-0.1626119 0.88119459 -0.14192377
-0.34365773 1.1229423 -0.10274222
-0.34702277 1.133938 0.020699071
-0.34603322 1.1307045 0.22984825
-0.34886834 0.83170545 -0.1428484
-0.54757416 1.0813665 -0.10604501
-0.54928631 1.0847478 0.021223456
-0.540196 1.0667959 0.23243377
-0.41528603 0.7917943 -0.14161006
-0.55264068 0.95195425 -0.13515367
-0.63508797 0.99318516 0.020577375
-1.1897991 0.6964277 -0.16927478
-1.5239059 0.89199114 -0.15448445
-2.1124861 1.2365061 -0.12828161
-2.6863103 1.5723839 -0.054331575
-2.1517718 1.2184932 -0.12959488
-2.6900337 1.5232972 0.053960431
-2.666419 1.5099249 0.26808727
-1.5498053 0.84855419 -0.1545836
-2.1545208 1.1796498 -0.12873033
-2.6666827 1.4600704 0.48152453
-2.6475406 1.4495896 0.69685316
-2.6332576 1.3931602 0.57907444
-2.6416357 1.3975927 0.80078167
-2.6747034 1.3664556 -0.052426837
-2.652144 1.3549303 0.051984709
-2.6494718 1.3535652 0.26029629
-1.5661949 0.77207595 -0.15276878
-1.2330284 0.58605313 -0.16762729
-2.619235 1.1992623 0.77188891
-2.2439494 0.988832 -0.12851213
-2.6553614 1.1701274 -0.050650097
-2.6624713 1.1732605 0.050785776
-2.6350231 1.1611649 0.25192526
-2.6351283 1.1612113 0.45608911
-2.6482053 0.99019051 -0.04935012
-2.6288061 0.98293692 0.048988663
-2.6340861 0.9849112 0.24603514
-2.6259918 0.98188466 0.44403914
-2.6176503 0.97876567 0.64519507
-1.658471 0.59320563 -0.15409952
-2.3246872 0.79415923 -0.12874448
-2.3418157 0.72585797 -0.1284894
-1.3216897 0.38902074 -0.16916642
-2.6116934 0.76871514 -0.047520865
-2.6361177 0.77590412 0.047965329
-2.6071053 0.76736474 0.23776688
-2.6160123 0.76998633 0.43190998
-2.5940781 0.76353031 0.62429237
-1.3379885 0.35253665 -0.16989094
-2.3719544 0.58879721 -0.12808134
-1.7075155 0.39800701 -0.15339258
-2.6149471 0.57019007 -0.046716474
-2.6162009 0.57046354 0.046738919
-2.603061 0.56759834 0.23308916
-2.5923104 0.56525421 0.42022845
-2.585314 0.56372863 0.70900881
-1.7410145 0.30199888 -0.15459335
-2.4316723 0.38603732 -0.12903425
-1.3587195 0.19580901 -0.16855301
-2.601069 0.37484759 -0.045870777
-2.5967042 0.37421858 0.04579385
-2.5974472 0.37432563 0.22959451
-2.5803823 0.37186641 0.50675648
-2.5698006 0.37034142 0.69568849
-1.1156845 0.14451712 -0.17818306
-1.7691948 0.17785119 -0.15556437
-2.4802833 0.17780529 -0.13031951
-2.5816407 0.18507136 -0.045178264
-2.5850055 0.18531257 0.045237184
-2.590862 0.18573241 0.22725244
-2.5774565 0.18477139 0.50229174
-2.5552893 0.18318228 0.68644375
-2.5345845 6.7238079e-06 0.40143818
-0.38022366 0.3956365 0.22718453
-0.32209307 0.34858477 0.17379858
-0.34422654 0.34206253 0.17711759
-0.34870437 0.30199814 -0.021927889
-1.4216362 0.55422127 -0.23138653
-2.2659943 0.76113898 -0.21860147
-0.38081107 0.28130549 -0.18961188
-0.59991777 0.3317422 -0.18715124
-2.1231341 0.60624701 -0.21526533
-1.3360665 0.42130551 -0.22772481
-2.0778153 0.55837911 -0.21427073
-1.3222235 0.39142519 -0.22768365
-0.35951135 0.19757986 -0.18887489
-1.9086236 0.38367918 -0.21094036
-0.8136645 0.22214125 -0.1771064
-0.80486131 0.18273988 -0.17863728
-1.725988 0.19745658 -0.20846988
-2.5359697 0.12594555 0.69748145
-0.46054274 0.083042175 -0.179819
-0.71589005 0.085709393 -0.17504251
-2.5689774 0.064001657 -0.18176413
-2.496675 0.020796247 -0.1816763
-1.5320073 0.0094805323 -0.20686224
-2.453573 -0.021149624 -0.18300398
-1.4744607 -0.017674359 -0.20428294
-2.3041704 -0.097978659 -0.18205374
-2.5351064 -0.13749243 0.12613638
-0.64013422 -0.015773654 -0.17461598
-0.39896265 -0.010890209 -0.17848913
-2.1381161 -0.20343935 -0.18306528
-0.39572468 -0.037154406 -0.18063879
-2.0667257 -0.23380813 -0.18227291
-1.2481297 -0.21346347 -0.2033973
-1.9261132 -0.32479873 -0.18380821
-2.5446022 -0.55972087 0.31448567
-1.7178087 -0.42477623 -0.18341362
-2.5424602 -0.62168193 -0.021920539
-0.73509985 -0.22829063 -0.16223539
-0.44225198 -0.20277695 -0.17132688
-1.4952725 -0.53047484 -0.18373524
-0.57030505 -0.31277364 0.25457433
-2.3044028 -0.86384064 -0.15213163
-0.56424606 -0.32425955 0.21019715
-0.52981532 -0.31607845 0.2440684
-0.52457488 -0.32738924 0.20130451
-1.3557478 -0.60859281 -0.18580554
-2.0874438 -0.91886723 -0.15492009
-0.33328584 -0.30671793 0.22883949
-0.33310282 -0.28278616 -0.16964881
-0.32744646 -0.31539717 0.19239964
-0.46848482 -0.40762627 -0.16303049
1.4895874 -0.37560716 -0.1909283
1.588097 -0.19539817 -0.22194625
2.0460048 -0.31011459 0.077949427
1.6765262 -0.14779882 -0.23083486
2.08301 -0.1340563 -0.23844215
2.4179409 -0.18078506 -0.21711874
1.5541774 0.011393145 -0.23283975
3.3349524 -0.062349126 -0.1906596
2.226701 0.019316575 -0.24290258
2.2879076 0.068227343 -0.24654241
2.4978063 0.18213394 -0.26390925
3.3097119 0.22490251 -0.26394895
2.5678082 0.21581012 -0.27013427
2.6773369 0.25517717 -0.28092378
2.0150278 0.22050129 -0.25379181
2.6538439 0.23309301 0.32148153
2.3987834 0.20645951 0.34688759
3.1088119 0.35999462 0.22028689
3.1427047 0.43950889 0.23094596
2.7552497 0.40847218 0.27525133
2.8017576 0.45605972 0.2040513
2.6154978 0.41692349 0.25958845
2.1273673 0.39683536 -0.26063672
3.2249827 0.61207181 -0.22747196
2.120702 0.41923907 -0.25832269
1.3892202 0.27202958 -0.21461533
2.8694081 0.68770146 -0.27614045
2.424233 0.53078735 0.18085955
3.2416151 0.82043064 -0.21457516
3.2233496 0.80638272 -0.11574821
2.5809083 0.60772425 0.12733826
3.2258811 0.83069938 0.082510702
1.8357285 0.4483175 0.075604938
1.867009 0.51059222 -0.2645978
1.6543959 0.4293392 0.065192357
1.3884823 0.40763906 -0.21122858
-0.20583498 0.48506397 0.26978263
-0.34750411 0.50064939 0.31241506
0.012034838 -0.33113298 -0.075147063
0.062540889 -0.31485781 0.036246758
0.077381626 -0.32032591 -0.07445319
2.007091 -0.40045393 -0.23144254
2.7278571 -0.12750237 -0.18033382
2.9973729 -0.077024922 -0.19550154
3.1733162 -0.06125138 -0.20648895
3.2421472 -0.046116479 0.021931767
2.7356131 0.021380158 -0.23237568
2.9803181 0.094864719 -0.25374565
3.1313329 0.13007516 0.24833818
3.0425546 0.20973894 -0.25487831
2.6290712 0.18365219 0.29489055
2.769969 0.34326294 0.33643159
2.5505261 0.40314144 -0.25287655
3.2768502 0.58299267 -0.26659244
3.2646024 0.6137327 -0.26467925
2.3882544 0.40642998 0.31256831
2.258172 0.37392086 0.32457221
2.2432945 0.4074896 0.32432625
2.470547 0.60780346 -0.24082756
2.4320424 0.62188774 0.18492919
2.3814704 0.6004914 0.22801977
3.2428837 1.0178182 -0.0063416911
1.9970287 0.60440391 -0.25961739
0.16907661 0.39530379 0.19038147
-0.0094123175 0.44165468 0.23838538
0.15913107 0.34260061 -0.04254688
0.033466343 0.36678746 0.17999928
0.16955152 0.32155743 -0.20142706
0.055280842 0.32765847 -0.043642458
0.031774931 0.29590681 -0.18926175
-0.17179854 0.3084915 -0.002377806
-0.29277951 0.26248032 -0.18870425
0.14214376 0.19619703 -0.20881514
-1.5556281 0.38450122 -0.22714242
-1.5374182 0.34522024 -0.22755004
-0.036449634 0.18453044 -0.20251738
-0.28058261 0.18482226 -0.19056298
-2.5970039 0.23520809 -0.18166184
-0.82691503 0.1142567 -0.18693453
-2.563242 -0.023526302 -0.19310607
-0.75419515 -0.01481874 -0.18819703
-0.25844485 -0.0022386182 -0.19744627
-2.5453296 -0.21927986 0.6869418
-0.73146111 -0.064321473 -0.18918768
-2.5484285 -0.22886379 -0.20286645
0.048646584 -0.0071809944 -0.20000353
0.062433045 -0.034063634 -0.19975816
-2.5393221 -0.43547422 -0.21311013
-2.4862704 -0.47925344 -0.21341597
-0.64342284 -0.20335507 -0.19066562
-2.3720024 -0.61198485 -0.21614182
-2.328913 -0.6534363 -0.21674436
-0.15615115 -0.20544936 -0.19940606
-0.13218716 -0.23529617 -0.19904622
-2.1695378 -0.81329024 -0.21943763
-0.52461511 -0.37134436 -0.19253857
-2.1347046 -0.85264343 -0.22029184
-0.50067085 -0.41253492 -0.19354038
-0.12990519 -0.32445469 0.18661305
-0.10945277 -0.31905437 0.22679457
0.47867268 0.95228064 -0.17596713
0.49725389 0.95356262 0.15453264
0.46010673 0.82595366 0.15632585
0.42323822 0.79962474 -0.17243765
-0.36072803 0.99590498 0.020085681
0.49171507 0.79160661 0.18113963
0.39986646 0.79934025 0.16816291
-1.7451888 1.2367326 -0.1539132
-1.7473567 1.1910667 -0.15259139
0.1283318 0.79889917 -0.16826728
0.44911018 0.72233319 0.22393687
-0.19397457 0.79100621 -0.1458732
-1.8074151 0.97143984 -0.14831762
-1.8364741 0.79124016 -0.14477761
0.39506629 0.59821737 -0.16810501
0.17428614 0.58718437 -0.15683143
-0.2733959 0.59214747 -0.14599903
-1.8607703 0.56319159 -0.14066513
0.41327134 0.4691985 0.13418224
0.4762845 0.47817904 0.21967798
0.5072549 0.033443257 0.26177236
0.49835148 -0.0084589701 0.15664104
0.51174152 -0.016698545 0.23072566
0.53565687 -0.22003695 0.26048917
0.58643711 -0.42315537 0.29120341
0.61940688 -0.61164922 0.32614207
0.67935568 -0.55056071 0.35369307
0.67463768 -0.63625801 0.32399455
0.83798528 -0.60738385 0.20287004
0.86412948 -0.59265184 0.19828165
0.87989742 -0.60224807 0.19863075
0.88220757 -0.59777814 0.24363703
0.8800655 -0.60457397 0.29211792
1.0918295 -0.47529113 -0.18097481
1.0736178 -0.56537235 0.053874422
1.0761312 -0.56528062 0.22159776
1.2351453 -0.31830806 -0.19068162
1.2623824 -0.51710641 0.045138914
1.2643052 -0.53906047 0.24776851
1.463068 -0.49006948 0.0017940634
1.4647449 -0.49794734 0.039925624
1.4692403 -0.50034159 0.23462489
1.6634045 -0.45994249 0.073516242
1.6673554 -0.4597615 0.22984035
1.6684897 -0.4339329 -0.040627971
1.8631958 -0.40890604 0.071043402
1.8711941 -0.4149549 0.23315428
1.8727723 -0.40184331 -0.084979765
2.0877607 -0.19664773 -0.12876588
2.2451971 0.49540514 -0.099179849
2.2759688 0.50459409 -0.16732079
2.3270652 0.513982 -0.20985334
2.2554817 0.52331197 0.026867017
2.5109465 0.55399573 -0.16028734
2.7077434 0.57242644 -0.038731005
2.8110228 0.61197168 -0.14213905
2.9813631 0.61712909 -0.097293049
2.3257265 0.60241705 -0.0043153055
2.2548976 0.60182112 0.05707217
2.3413711 0.61303949 -0.21420948
3.2643836 0.87110263 -0.2494414
2.8922369 0.83584863 -0.26429835
2.4235129 0.80475378 -0.23646185
3.2273347 1.0051823 -0.25040072
2.3654134 0.81344044 0.14178579
2.2106905 0.7853356 -0.23045625
2.8502364 0.94124609 -0.26312754
3.1512353 1.0200498 0.082194455
2.9778364 0.98015809 0.24928141
2.2245848 0.80208111 -0.2344943
2.9929419 1.0088593 0.25260991
2.4623191 0.8808018 -0.24760732
2.8568544 1.0124463 -0.26772562
3.0705318 1.1358815 0.26986071
3.1890297 1.225763 -0.25620168
3.1735306 1.2220581 -0.11835618
3.1670942 1.2223942 0.084257297
3.1717284 1.2257984 0.22109239
2.5016358 1.0012642 -0.26260835
2.7000029 1.0818752 0.31203762
4.1636748 1.717671 0.474296
2.6446769 1.1037173 0.30104059
2.7474697 1.1674802 0.2189973
2.4542263 1.0577115 -0.2591542
2.7274084 1.200649 -0.26198521
3.1750011 1.4036636 -0.26415157
3.1702209 1.4030386 -0.12301143
3.181258 1.4103481 0.087538935
3.1601493 1.4022928 0.22654033
2.7349668 1.2327857 0.16610344
2.6219652 1.1799222 0.19999658
2.659204 1.2433766 0.15736899
2.4528916 1.1399227 0.26152346
2.1806159 1.0121825 -0.24462669
2.6499178 1.2582453 -0.25613844
2.4393234 1.1722685 0.21641423
3.1766114 1.6022854 -0.27613291
3.1704497 1.6001266 -0.12848783
3.1691587 1.6013329 0.090587385
2.4447055 1.2159641 0.1755985
3.2867186 1.7789468 0.021695893
4.0800834 2.2714796 0.15770343
4.1003118 2.2848964 0.27293572
2.3642378 1.209227 0.25033391
3.3965781 1.888562 0.11037604
2.5854561 1.4181955 -0.26138115
4.1077509 2.4577196 0.28165707
3.0619519 1.7787199 -0.27711463
3.0935688 1.8022392 -0.057215929
3.2494986 1.9126281 0.10328215
2.5372484 1.4131508 0.15366557
3.0534518 1.8096462 -0.27852875
3.3732715 2.0431738 0.11368328
3.0564618 1.8507122 -0.057478193
4.0766659 2.6122286 0.16752304
4.0843258 2.6185653 0.28802049
2.0526712 1.1176305 -0.23420002
2.1657302 1.2044623 -0.22851856
4.0840545 2.8068182 0.29843754
2.4491746 1.5000386 -0.25300738
4.0767212 2.8659832 0.17624402
2.3390543 1.4091762 0.17859629
2.2578492 1.341329 0.24745661
3.0527813 2.0494916 0.17733288
2.9566808 2.0060129 -0.28469294
2.9556315 2.0054443 -0.13337126
2.298842 1.4228613 0.22088864
2.4765804 1.6097821 0.16293399
2.0134051 1.2217091 -0.24299268
2.4565589 1.6511086 0.16467507
2.1994331 1.4022288 0.24669598
2.8516757 2.0757041 -0.2814922
2.9781282 2.201797 0.10092818
2.3490613 1.6040449 -0.25277501
1.9671118 1.2499319 -0.077366479
2.8659739 2.2258074 -0.059259068
2.8501153 2.2082458 0.17384724
0.7577616 1.2509401 -0.14767209
0.74675357 1.2519212 0.041598346
0.6537146 1.2652183 -0.12141927
0.71491522 1.1964937 0.13642164
0.65597326 1.2311687 0.048042789
0.6543203 1.1648935 0.14288078
0.56143737 1.1946092 -0.15541896
0.46195838 1.2353482 -0.08937671
0.46110329 1.1999676 -0.011903317
0.44466212 1.1936836 0.026959343
0.29506907 1.2667284 -0.18333569
0.25672352 1.2267735 -0.18316138
0.26011282 1.205253 -0.13682319
0.23301111 1.1984413 -0.18290491
2.885989 0.57750171 -0.052932303
3.3164854 0.6314441 -0.3842217
3.0572734 0.83847451 0.19281454
2.8753908 1.029842 -0.30033565
3.0480578 1.0566586 0.20225008
2.9368336 1.2195497 -0.28846207
2.9237182 1.4055144 -0.26489624
2.7051318 1.4197829 -0.25678581
3.0680552 1.8138615 -0.26298347
4.133163 2.6222675 0.42678007
2.6722755 1.4042147 0.13217904
2.7021589 1.6117671 -0.24868236
3.0566247 1.8938673 0.041902993
4.1311798 2.8521044 0.48454818
4.1246872 3.0233765 0.29358128
2.7306533 1.6244829 0.14964874
3.0926824 2.0427244 0.19587813
4.1194596 3.2224214 0.33377889
3.0739672 2.2126293 0.096495569
2.6697099 1.8203976 -0.23918296
2.6496527 1.8569839 -0.2354649
2.9436562 2.1463799 0.22098242
2.9809988 2.3526776 -0.22447379
3.0514719 2.5054069 -0.23138402
3.1121891 2.5196698 0.069119461
3.0805447 2.5843811 -0.15525058
3.0570164 2.6051147 -0.15115859
3.0580707 2.5877185 -0.074071281
3.0541084 2.544426 0.076701321
2.862546 2.2103159 0.23651063
3.0232058 2.6289501 -0.22449125
2.8306801 2.2091193 0.23659401
2.979902 2.600795 0.089557752
2.5716426 2.0292013 -0.22404817
2.9748726 2.8057592 0.034347143
2.8511636 2.5416834 0.16350135
3.4500616 3.8440375 -0.14181517
3.4716587 3.8239608 0.1007747
2.440002 1.8038112 0.19308366
2.8775976 2.8229966 -0.202383
3.4207737 3.8328004 0.10563202
3.0269685 3.0332472 0.14523296
2.8041961 2.6465774 0.18307339
2.7640717 2.5481093 0.24158855
2.4348111 2.0248175 -0.20437132
2.889559 3.0044837 -0.20260002
3.3178704 3.814702 0.23226951
2.4023926 1.9995743 -0.19943124
3.2351897 3.8421822 -0.11917118
3.2560902 3.8271317 0.11731001
2.8980284 3.2019517 -0.20277269
3.2136962 3.819757 0.23893775
2.8125904 2.8911438 0.22311282
2.2684288 1.6263267 0.22067901
3.1626649 3.7923903 0.35673326
2.6497748 2.579627 0.25107157
2.2572577 1.6372266 0.22399662
2.6344521 2.6185565 0.25918931
3.0184088 3.7860651 0.47913185
2.2459893 1.7388436 0.21635877
2.2583663 1.8280355 0.19936217
1.069633 1.294014 0.062598862
1.059039 1.2912979 0.027454274
1.03881 1.2952784 -0.0068777972
1.044945 1.2432034 -0.18541801
1.0717412 1.2111174 -0.18371378
1.0378551 1.1289829 0.092662469
0.92331731 1.1946901 -0.17556821
0.9177621 1.1656294 -0.18026093
0.43904343 1.2433875 0.020792168
0.66084415 1.1422081 -0.18025404
0.97370213 0.96774358 0.092528425
0.66288894 1.1049286 -0.18617418
0.88206035 0.99912798 -0.21106508
0.85542703 0.92564178 0.099069789
0.6412726 0.98608971 -0.2100217
0.66411221 0.96409571 -0.21096428
0.34351474 1.016323 -0.19030195
0.36315876 0.99120235 -0.19315681
-2.4837985 1.3045011 -0.11172447
0.97961426 0.78693438 0.17970513
0.85839975 0.78856587 0.17764656
-2.1316781 1.1449258 -0.1336181
-0.028887069 0.91296273 -0.18164174
-0.89655596 0.90025485 -0.14505906
0.77931225 0.7245698 0.2242521
0.61533165 0.71602345 0.22362395
0.96003884 0.78652841 -0.23715252
0.81580961 0.78797317 -0.2246481
0.57560068 0.7920121 -0.21146081
0.14733295 0.77655691 -0.19824669
-0.63262647 0.77966905 -0.16209827
-2.5834756 0.52665234 0.84235579
0.27931595 0.70721018 -0.20414035
-0.35354424 0.65094423 -0.18071191
-0.28838599 0.62336123 -0.18458466
0.46511322 0.52778018 0.27625808
-0.46098727 0.43115234 0.18470231
0.46650901 0.59364063 -0.21645711
0.20504512 0.55553323 -0.18346515
-0.1929867 0.43680507 0.14675443
0.48308539 0.50529981 0.012138898
0.81119263 0.59140301 -0.23147048
0.41744509 0.51706994 -0.18518035
0.87059176 0.57137048 -0.23009476
1.6241283 0.37527373 -0.30244109
3.1937153 1.6125439 0.24118894
4.1405787 2.3515439 0.45152602
4.1339917 2.427531 0.47785807
3.2853749 1.7698163 0.26358557
3.2381389 1.8001549 0.27214074
4.1359744 2.8451443 0.62851048
4.126585 3.006537 0.48181513
4.1368427 3.009553 0.68953949
4.1171985 3.2722206 0.45766529
3.0812843 2.0006976 0.2461915
4.0997653 3.4221876 0.39083418
3.0545969 1.9806794 0.28727564
3.0679951 2.6124067 -0.18244705
2.8580973 2.2509563 -0.20309439
2.7228041 1.8094223 0.18594652
2.8524716 2.1721666 0.26363122
2.8256063 2.4229932 -0.19688538
2.6541739 1.8501828 0.20332585
2.7029622 2.0130565 0.21927182
3.2676041 3.8467035 -0.18252663
3.2786055 3.7992074 0.23382612
2.7150047 2.4838548 -0.17755996
2.6167941 2.0052979 0.22188306
3.0497167 3.8317285 -0.14798413
2.8855002 3.024425 0.23347664
2.6579828 2.5141315 -0.16867124
3.0366995 3.8228738 0.058949072
3.0170496 3.7926257 0.26297152
3.03598 3.8061261 0.36681378
2.7228556 2.6217337 0.23408113
2.8446536 3.8321507 -0.1184207
2.8755949 3.7825184 0.17609304
2.8246324 3.7984784 0.08346124
2.8525233 3.8031139 0.28255457
2.8097959 3.7953684 0.285891
2.8314445 3.7701547 0.48285615
2.4849217 1.9755628 0.22093824
2.731441 3.7987192 -0.0048911255
2.7457259 3.8088496 0.093608961
2.5916953 3.5063136 -0.17887162
2.6429071 3.8182452 -0.092783287
2.4400828 1.9712856 0.2228879
2.6237676 3.794651 0.10608407
2.6466563 3.7922025 0.30218908
2.5732005 3.7963011 0.013253346
2.5852065 3.8040662 0.11100292
2.6280339 3.7817254 0.50424862
2.4609456 3.6099124 -0.16592978
2.4390905 2.5482152 0.35870829
2.446063 3.8002069 -0.070983142
2.455343 3.7872996 0.025296142
2.435622 3.7793779 0.22209677
2.4156775 3.7843857 0.42310971
2.3937166 3.762727 0.62311304
2.3223226 2.6300168 0.33261856
2.2612684 2.4159744 -0.1175128
2.2528381 3.8020089 -0.052491806
2.2613692 3.7904961 0.043818053
2.2955947 2.1090047 0.23963058
2.239166 3.7672517 0.23860027
2.2556961 3.7552981 0.43203458
2.2517011 2.5959327 0.33005169
2.2045641 2.3955176 -0.11240126
2.2475722 2.0887492 0.23795393
2.2549734 1.9243507 0.2229367
2.1444855 2.7716532 0.0062230225
2.1514344 2.7361286 0.064575046
2.1670473 2.6952164 0.23994814
2.1986876 2.3197644 0.26248613
2.1580651 2.4610808 0.14435837
2.171427 2.3389921 0.17239159
2.1711555 2.1676607 0.18227354
2.1293209 2.1553166 0.018492835
1.3714309 1.207359 -0.17456341
1.3808426 1.1982632 -0.14213569
1.3972466 1.1020569 0.26854002
1.3086771 1.2065643 -0.18351918
1.3268045 1.1896163 -0.18445943
1.2612875 1.1931664 -0.15575653
1.3482701 1.1340879 0.042944282
1.1246891 1.1358163 -0.18296354
1.2600436 1.0645059 0.07264445
1.3990002 0.99592882 0.20281917
1.4043596 0.98813528 0.2342941
1.2602366 0.94140619 0.080024511
1.1430464 0.99341452 -0.2152255
-1.8243871 0.592444 -0.19248879
-0.74191016 0.66287714 -0.17500935
-0.62146413 0.63637894 -0.18184115
1.2882671 0.7985481 0.23396321
1.2301351 0.79053569 0.1702843
-0.36919287 0.5949409 -0.19270691
1.2580038 0.76162773 0.23768987
-0.25184318 0.57780367 -0.19728184
-0.61835873 0.40961596 0.18691462
0.9124915 0.68089569 0.23939313
1.2746198 0.84303957 -0.24158931
-0.073382221 0.43383577 0.20287894
0.089692913 0.45384136 0.2612845
0.19477278 0.46977594 0.16309254
0.21918003 0.39599043 0.46366015
1.0799205 0.76347315 -0.23985192
-0.076562501 0.42926237 -0.061485391
0.75227439 0.5341956 0.31711963
0.32733393 0.37885875 0.50507677
0.88469255 0.53332371 0.27434239
1.3158212 0.78102553 -0.25548106
1.0662299 0.54563361 0.26860279
1.1043749 0.59928119 -0.24061409
1.4781256 0.62334883 -0.2570796
1.4915023 0.39569458 -0.14861989
2.8823855 0.54535913 0.023174312
3.1240413 0.63626385 -0.38069665
3.220866 0.59402925 -0.45884818
3.2663481 0.53777939 -0.44417921
3.229852 0.82227737 -0.40227094
3.4595938 1.7639389 -0.061515331
4.2223964 2.0652802 -0.0110525
3.5693798 1.8170453 -0.024581691
4.230557 2.0817456 0.053958438
4.263741 2.0821605 0.11699295
3.4526687 1.8096687 -0.019646909
4.2683883 2.2199059 0.14883643
4.2802181 2.2388434 0.22074901
4.2541652 2.403897 0.125347
4.2682204 2.4263048 0.20025975
4.2845564 2.4187734 0.26930928
4.2874718 2.6028085 0.24711369
4.2654791 2.7509227 0.21143486
4.2735167 2.8347807 0.2330595
4.2823014 3.0542538 0.29194751
4.2884135 3.2023907 0.332867
4.284132 3.4420927 0.30539823
3.1133952 2.6005795 -0.018723473
3.0629449 2.8216641 0.070208654
3.2962239 3.7985699 -0.0078502623
3.0802147 3.031276 0.098097816
3.101368 3.594768 -0.30278096
3.170769 3.8179555 -0.24437836
3.2648084 3.799413 0.17645706
2.858844 2.6279624 -0.22948115
3.2280564 3.7954216 0.18311162
3.0354798 3.5779605 -0.28552029
3.0293 3.7992666 -0.21050635
2.9976401 3.8130598 -0.20358719
3.013324 3.7957175 -0.12030052
2.8541927 3.5924892 -0.2437859
2.6424723 3.5250192 -0.19355185
2.5950329 2.386874 -0.14492518
2.7460933 3.7664564 0.62617308
2.6442976 3.7669976 0.64727181
2.445425 3.4413252 -0.14936547
2.3392568 3.3899999 -0.12687267
2.3113914 3.8048301 0.022882119
2.2293134 3.7984002 -0.04774544
2.2607911 3.3594108 -0.11152618
2.4969497 2.4704018 0.42038113
2.2509277 3.7618046 0.64123648
2.1050806 3.8034461 0.059917051
2.0596409 3.786252 -0.01859186
2.4504902 2.460813 0.42859268
2.2910213 2.6896372 -0.076077729
2.0425351 3.7708714 0.07038971
2.3098583 2.5502908 -0.070850767
2.0354381 3.7704396 0.24440707
2.3303208 2.7800837 0.42259589
2.3482373 2.3375478 -0.098320201
2.2671552 2.8138053 0.2293375
2.2237439 2.8042071 0.080675893
2.3348303 2.3818905 0.38610604
1.6019778 1.1643529 -0.011678534
1.5501989 1.1445987 0.028386751
0.41686058 0.82653004 0.2724711
0.46460027 0.80639184 0.26094532
-2.4902964 -0.066478066 0.87878555
-2.4603899 -0.092772029 1.063764
-2.4099326 -0.11304013 1.2446891
-0.41877264 0.47124994 0.84955627
-0.36503395 0.46211019 0.71218288
-0.25998551 0.47471374 0.79787749
1.4376724 1.0035129 0.4422304
1.4804544 1.0092261 0.47402409
-2.2822917 -0.15913406 0.82142985
-0.33367497 0.44657758 0.58558559
-0.12087915 0.47612813 0.75252306
1.4333391 0.98234516 0.44277543
1.4795008 0.98980802 0.473447
0.014422817 0.47760344 0.50071937
0.10500117 0.49117646 0.5789237
0.1798375 0.49981028 0.6566844
0.26290968 0.54698032 0.35355213
0.27595609 0.51575327 0.53203321
0.34450445 0.50563073 0.6979903
0.55123711 0.55358624 0.62708116
0.51759511 0.53878969 0.46467707
0.70724005 0.53609002 0.65213984
1.2951305 0.79516131 0.4933162
1.7065648 1.0495707 -0.039760392
0.70901603 0.52048159 0.5680269
0.86910516 0.56344444 0.66771764
1.6030815 0.98311907 -0.0035671408
0.88623959 0.52556956 0.58118302
1.0932764 0.57315052 0.64316708
1.316366 0.78337783 0.048747338
1.0827278 0.55418652 0.57597727
1.2743871 0.56827623 0.55991179
1.8345907 0.9662717 -0.066674739
1.4452751 0.71881592 0.01879839
1.4799783 0.71776944 0.013248425
1.2714678 0.50251865 0.36913374
1.4876729 0.53269374 0.46498692
1.5008881 0.53247851 0.40228674
1.7463388 0.78560007 -0.055948287
1.678612 0.4922694 0.38478619
1.8746678 0.7220248 -0.084990561
1.6898866 0.38666368 -0.025687709
1.8633581 0.45811224 0.31241637
1.8684474 0.39658847 0.032776203
1.8724132 0.38967577 -0.014415308
2.0615289 0.39813983 0.24457455
2.0838349 0.3930777 0.19365926
2.1731431 0.602009 -0.15346366
1.7903599 1.0337578 0.29290992
1.9160864 1.1775186 0.27378464
1.1338444 0.23543805 0.35784304
1.5453054 0.6805172 0.36030737
1.7875757 0.97487867 0.30610231
1.7852443 0.97196501 -0.31986779
1.7483044 0.79631424 0.35367259
1.9033023 0.97897881 0.326332
1.8793995 0.89063781 -0.3259663
1.5697559 0.3215614 -0.38838926
1.8748174 0.76742595 0.33541977
2.0695324 0.89119619 0.31560177
2.0472803 0.63118136 0.18214995
2.1604333 0.81284207 0.18613592
2.0624461 0.3938356 -0.072123386
2.2743857 0.87866789 0.24279192
2.5707586 0.65840292 0.22372912
2.8699884 0.67797631 0.2533083
2.899977 0.60423595 0.17124969
2.9276252 0.59031516 0.22387698
3.2811151 1.001992 -0.27378401
3.1161633 3.6243532 -0.19731082
3.0961668 3.7976365 -0.0026508288
2.8501749 3.0744872 -0.19144295
2.772635 2.8150394 -0.19485632
2.8532398 3.3502398 -0.21537235
2.8371539 3.8088412 -0.18754913
2.6540217 3.1687241 -0.22868443
2.6019688 3.2074463 -0.22981185
2.5941849 3.802341 0.22161184
2.4465332 3.6069067 -0.20998575
2.450943 3.267942 -0.22779095
2.4532011 3.048624 -0.24075454
2.4535787 2.9003534 -0.25216129
2.2592988 3.7052779 -0.20753886
2.2547448 3.3597755 -0.22879218
2.1026182 3.8020744 -0.20736821
2.2546554 3.1123085 -0.24219523
2.0502756 3.785749 -0.20327322
2.3113413 2.7940295 -0.2595014
2.2553263 2.9322863 -0.25194126
2.0845401 3.4106987 -0.22772852
2.0597024 3.4146519 -0.22727081
1.935231 3.7526238 0.42056942
1.8460411 3.7816467 -0.19304977
1.8588907 3.7628682 -0.12347665
1.8479927 3.7553411 0.082967438
1.8535205 3.76882 0.22238922
1.8465822 3.7531915 0.43531597
2.1649959 2.8028579 -0.092780732
